ncols        266
nrows        89
xllcorner    225536.06161
yllcorner    5102227.25132
cellsize     20
NODATA_value  32767
331 326 323 325 327 327 327 324 324 326 331 325 322 314 313 315 306 312 312 312 310 309 307 308 306 306 307 307 309 306 306 306 306 305 304 306 310 309 309 302 311 311 312 311 311 307 307 306 302 304 302 298 298 294 295 298 318 318 329 333 336 341 342 342 345 353 358 360 364 366 366 374 376 379 381 381 386 384 382 381 376 375 375 376 376 374 374 375 377 381 373 373 374 373 373 373 373 373 372 370 370 368 361 356 357 352 349 349 349 349 349 348 346 346 346 346 347 348 346 346 346 345 349 355 357 359 355 357 357 358 358 360 359 359 357 356 355 354 353 354 354 354 356 357 355 354 354 353 353 353 368 378 378 377 379 382 379 376 376 374 371 372 373 375 375 375 376 376 377 378 378 378 377 377 376 376 377 383 384 387 388 388 386 387 387 388 388 391 391 397 398 397 404 407 412 408 408 408 406 408 408 408 402 406 411 420 419 420 420 420 421 433 439 444 450 456 461 461 460 460 462 461 461 454 455 451 450 449 451 452 452 449 447 444 444 444 443 440 440 439 440 440 444 454 453 459 464 464 470 474 472 474 481 481 480 473 468 468 464 457 457 449 430 421 421 409
331 326 323 325 327 327 327 324 324 326 331 325 321 315 312 310 311 313 312 312 312 306 308 307 306 306 305 307 308 311 311 309 309 301 301 305 314 314 313 308 315 315 309 308 308 307 308 309 307 305 300 301 301 294 292 292 313 313 322 333 336 335 341 346 346 354 359 363 367 369 369 377 380 381 390 390 388 384 382 382 381 380 380 378 377 377 377 374 377 381 381 381 381 378 377 377 376 376 376 380 375 383 379 377 375 371 359 357 357 357 354 350 350 351 352 352 353 356 358 358 358 360 358 357 356 357 363 362 362 363 363 356 355 355 357 356 355 354 353 354 354 354 356 357 355 354 354 353 353 353 354 364 369 369 367 368 367 367 367 372 371 371 372 372 372 372 372 371 371 370 371 371 369 369 367 367 366 368 368 368 368 371 372 372 372 374 374 375 383 384 384 385 393 396 403 404 404 404 401 401 404 404 402 405 411 417 417 422 422 422 426 430 441 445 445 450 456 460 455 455 454 452 452 451 458 453 449 451 452 455 455 450 449 446 446 442 442 443 439 440 449 449 450 456 457 461 466 466 473 474 476 477 479 479 480 477 475 472 471 466 466 471 446 440 440 432
331 326 323 325 327 327 327 324 324 326 331 325 321 315 312 310 311 313 312 312 312 306 308 307 306 306 305 307 308 311 311 309 309 301 301 305 314 314 313 308 315 315 309 308 308 307 308 309 307 305 300 301 301 294 292 292 313 313 322 333 336 335 341 346 346 354 359 363 367 369 369 377 380 381 390 390 388 384 382 382 381 380 380 378 377 377 377 374 377 381 381 381 381 378 377 377 376 376 376 380 375 383 379 377 375 371 359 357 357 357 354 350 350 351 352 352 353 356 358 358 358 360 358 357 356 357 363 362 362 363 363 356 355 355 357 356 355 354 353 354 354 354 356 357 355 354 354 353 353 353 354 364 369 369 367 368 367 367 367 372 371 371 372 372 372 372 372 371 371 370 371 371 369 369 367 367 366 368 368 368 368 371 372 372 372 374 374 375 383 384 384 385 393 396 403 404 404 404 401 401 404 404 402 405 411 417 417 422 422 422 426 430 441 445 445 450 456 460 455 455 454 452 452 451 458 453 449 451 452 455 455 450 449 446 446 442 442 443 439 440 449 449 450 456 457 461 466 466 473 474 476 477 479 479 480 477 475 472 471 466 466 471 446 440 440 432
337 338 338 338 334 336 336 332 333 333 325 321 321 317 317 315 311 307 308 308 308 312 306 305 307 308 310 309 307 306 306 308 308 311 317 318 318 320 329 327 325 325 328 320 320 318 318 316 313 308 298 297 295 295 307 309 310 310 311 320 330 334 342 345 345 350 357 359 358 357 357 366 372 376 382 382 384 385 390 395 398 396 396 395 390 383 383 384 385 383 383 382 387 388 389 389 386 386 384 386 387 389 398 394 390 385 376 377 377 377 377 369 369 369 370 371 373 356 358 358 358 360 358 357 356 357 363 362 362 363 363 356 355 355 354 353 356 356 356 354 353 353 357 358 357 355 355 353 353 354 356 354 355 355 355 357 357 359 359 361 365 370 372 373 373 374 373 369 366 365 364 364 364 364 365 365 367 367 368 367 365 367 368 367 367 366 366 367 369 368 367 370 376 379 383 389 389 392 392 394 395 397 402 405 409 415 416 422 422 422 424 426 439 442 444 446 449 454 454 454 451 451 451 455 452 453 455 459 459 457 457 454 448 445 445 443 444 446 452 453 454 458 458 461 467 463 467 467 472 475 478 477 485 485 484 482 482 480 471 466 466 471 446 440 440 432
339 339 339 340 339 344 344 339 335 335 323 321 320 315 313 315 313 311 313 313 313 304 305 305 307 308 308 307 305 302 302 307 307 314 319 325 325 330 329 331 334 334 334 328 328 325 323 312 310 302 294 291 300 300 309 308 308 308 307 306 314 316 325 338 338 346 356 352 351 352 352 361 371 376 380 380 384 382 385 388 394 399 399 397 396 395 395 393 392 388 388 383 387 387 389 389 388 386 386 385 388 389 398 394 390 385 376 377 377 377 377 369 369 369 370 371 373 377 379 379 379 379 386 385 386 385 376 370 372 371 371 365 364 364 365 367 364 362 360 359 359 358 358 358 359 359 359 354 353 351 352 354 351 351 352 356 357 359 359 360 360 364 365 363 363 362 362 362 362 363 364 364 361 363 365 365 363 361 360 358 357 361 362 359 359 359 359 359 360 361 358 358 360 363 365 368 368 371 371 374 378 383 389 395 398 405 404 403 403 403 406 406 418 423 425 426 429 433 437 437 442 444 444 449 452 456 459 461 462 462 463 463 468 469 469 469 467 466 463 464 467 469 458 461 467 463 467 467 472 475 478 477 485 485 484 482 482 480 478 474 474 476 463 456 456 447
339 339 339 340 339 344 344 339 335 335 323 321 320 315 313 315 313 311 313 313 313 304 305 305 307 308 308 307 305 302 302 307 307 314 319 325 325 330 329 331 334 334 334 328 328 325 323 312 310 302 294 291 300 300 309 308 308 308 307 306 314 316 325 338 338 346 356 352 351 352 352 361 371 376 380 380 384 382 385 388 394 399 399 397 396 395 395 393 392 388 388 383 387 387 389 389 388 386 386 385 388 389 398 394 390 385 376 377 377 377 377 369 369 369 370 371 373 377 379 379 379 379 386 385 386 385 376 370 372 371 371 365 364 364 365 367 364 362 360 359 359 358 358 358 359 359 359 354 353 351 352 354 351 351 352 356 357 359 359 360 360 364 365 363 363 362 362 362 362 363 364 364 361 363 365 365 363 361 360 358 357 361 362 359 359 359 359 359 360 361 358 358 360 363 365 368 368 371 371 374 378 383 389 395 398 405 404 403 403 403 406 406 418 423 425 426 429 433 437 437 442 444 444 449 452 456 459 461 462 462 463 463 468 469 469 469 467 466 463 464 467 469 458 461 467 463 467 467 472 475 478 477 485 485 484 482 482 480 478 474 474 476 463 456 456 447
338 338 341 340 344 345 345 340 337 337 323 318 315 313 306 302 304 309 307 307 307 305 303 303 305 305 304 301 302 306 306 308 308 314 322 326 325 323 320 324 335 331 331 331 331 330 324 314 309 306 300 297 297 297 301 302 301 301 302 303 318 317 318 326 326 337 343 346 345 351 351 357 361 369 368 368 369 371 374 377 381 382 382 387 388 395 393 393 392 388 388 383 387 387 389 389 388 386 386 385 388 392 402 396 387 382 382 385 385 385 384 378 375 373 376 379 384 385 382 382 382 382 389 388 388 385 385 385 389 388 380 380 381 381 382 382 378 375 373 371 370 370 370 370 369 371 371 367 365 362 359 354 353 353 353 356 357 357 357 357 358 360 362 366 366 365 365 365 366 366 363 363 358 358 358 358 358 358 360 360 359 356 357 356 356 355 354 354 355 359 359 357 359 360 360 360 360 362 362 364 368 375 385 387 390 397 402 402 402 402 399 401 411 417 420 421 423 428 431 431 435 439 439 449 454 457 459 461 462 462 463 463 468 469 469 469 467 466 463 464 467 469 469 472 473 475 477 477 478 480 485 488 488 488 486 485 483 480 479 475 475 471 470 464 464 459
345 351 353 349 347 344 344 339 334 334 325 314 308 303 301 302 307 307 308 308 308 303 300 299 300 302 301 299 297 302 301 301 301 307 314 315 309 311 313 314 324 330 330 330 330 329 326 321 318 312 305 301 297 297 295 300 300 300 300 302 308 307 310 315 315 323 329 335 345 351 351 357 361 369 368 369 369 371 374 377 381 382 382 387 388 391 389 389 393 391 390 392 390 390 389 389 387 394 394 393 394 388 395 397 392 387 391 394 394 394 394 388 389 385 388 390 392 388 387 387 387 387 390 393 392 384 383 387 389 389 390 390 389 389 388 387 383 381 379 378 376 373 373 376 378 374 374 374 376 374 369 364 360 360 359 362 366 364 364 362 360 362 363 365 365 368 368 370 374 374 372 372 365 362 359 358 358 358 362 360 353 356 356 357 357 361 357 357 354 356 358 360 356 357 357 358 358 357 357 356 358 366 377 382 385 392 398 398 398 398 399 401 411 417 420 421 423 428 431 435 435 439 439 449 454 457 457 460 461 462 464 464 469 470 470 470 471 475 475 475 474 475 475 479 481 479 481 481 482 482 483 486 489 489 490 488 488 487 485 483 483 483 472 468 466 466
345 351 353 349 347 344 344 339 334 334 325 314 308 303 301 302 307 307 308 308 308 303 300 299 300 302 301 299 297 302 301 301 301 307 314 315 309 311 313 314 324 330 330 330 330 329 326 321 318 312 305 301 297 297 295 300 300 300 300 302 308 307 310 315 315 323 329 335 345 351 351 357 361 369 368 369 369 371 374 377 381 382 382 387 388 391 389 389 393 391 390 392 390 390 389 389 387 394 394 393 394 388 395 397 392 387 391 394 394 394 394 388 389 385 388 390 392 388 387 387 387 387 390 393 392 384 383 387 389 389 390 390 389 389 388 387 383 381 379 378 376 373 373 376 378 374 374 374 376 374 369 364 360 360 359 362 366 364 364 362 360 362 363 365 365 368 368 370 374 374 372 372 365 362 359 358 358 358 362 360 353 356 356 357 357 361 357 357 354 356 358 360 356 357 357 358 358 357 357 356 358 366 377 382 385 392 398 398 398 398 399 401 411 417 420 421 423 428 431 435 435 439 439 449 454 457 457 460 461 462 464 464 469 470 470 470 471 475 475 475 474 475 475 479 481 479 481 481 482 482 483 486 489 489 490 488 488 487 485 483 483 483 472 468 466 466
345 346 347 346 346 342 342 336 331 331 322 310 304 299 297 302 303 300 303 303 303 302 302 303 304 305 304 302 299 298 298 298 298 301 299 301 297 301 300 303 323 328 328 327 327 327 326 324 320 318 307 303 297 297 295 300 300 300 300 302 308 307 310 315 315 323 329 335 337 340 340 346 350 356 360 364 364 369 370 372 371 373 373 377 382 383 380 380 383 386 384 387 391 393 394 394 394 391 391 396 397 386 388 399 392 388 389 392 392 392 393 391 395 396 397 397 394 393 396 395 395 395 399 398 392 387 387 385 388 391 398 398 396 396 388 386 386 384 382 380 378 375 375 377 376 376 376 373 372 371 371 367 367 367 367 371 368 368 368 367 368 369 368 370 374 374 377 380 382 383 385 385 384 377 373 370 370 368 364 361 357 358 359 359 359 359 357 357 355 355 357 359 360 357 357 358 358 357 357 356 358 366 377 382 385 392 398 398 394 394 394 393 402 406 409 414 418 421 424 429 429 435 435 450 455 456 455 458 459 457 461 461 473 472 472 472 471 473 477 475 472 471 471 475 477 474 475 475 478 481 486 490 499 499 503 501 500 498 497 495 495 492 485 481 479 479
342 342 341 342 343 343 343 342 333 333 323 310 303 299 297 297 296 298 299 299 300 300 302 303 305 305 305 304 302 298 297 297 297 302 301 297 295 301 300 303 323 328 328 327 327 327 326 324 320 318 307 303 294 294 297 300 303 303 302 308 311 310 309 309 311 311 313 316 319 321 321 329 334 340 344 349 349 356 358 358 373 373 373 372 378 375 372 372 374 379 376 379 381 384 385 385 389 389 389 393 395 395 392 398 397 396 397 398 398 399 399 392 394 396 399 400 394 392 395 396 396 396 397 397 402 397 398 393 393 395 392 392 390 390 388 390 386 385 383 382 381 379 379 379 377 378 378 378 377 374 373 373 373 373 373 373 371 371 371 375 378 378 379 382 384 384 387 389 395 391 396 396 394 386 384 381 381 368 364 361 357 358 359 359 359 359 357 357 355 355 357 359 360 360 359 357 357 355 355 354 355 356 362 369 375 382 385 386 390 390 390 387 390 393 400 406 411 414 416 421 421 429 429 443 448 451 455 457 462 465 467 467 473 476 476 475 474 473 471 468 465 464 464 468 469 471 474 474 480 488 495 497 503 506 506 507 508 507 505 504 504 502 496 490 487 487
342 342 341 342 343 343 343 342 333 333 323 310 303 299 297 297 296 298 299 299 300 300 302 303 305 305 305 304 302 298 297 297 297 302 301 297 295 301 300 303 323 328 328 327 327 327 326 324 320 318 307 303 294 294 297 300 303 303 302 308 311 310 309 309 311 311 313 316 319 321 321 329 334 340 344 349 349 356 358 358 373 373 373 372 378 375 372 372 374 379 376 379 381 384 385 385 389 389 389 393 395 395 392 398 397 396 397 398 398 399 399 392 394 396 399 400 394 392 395 396 396 396 397 397 402 397 398 393 393 395 392 392 390 390 388 390 386 385 383 382 381 379 379 379 377 378 378 378 377 374 373 373 373 373 373 373 371 371 371 375 378 378 379 382 384 384 387 389 395 391 396 396 394 386 384 381 381 368 364 361 357 358 359 359 359 359 357 357 355 355 357 359 360 360 359 357 357 355 355 354 355 356 362 369 375 382 385 386 390 390 390 387 390 393 400 406 411 414 416 421 421 429 429 443 448 451 455 457 462 465 467 467 473 476 476 475 474 473 471 468 465 464 464 468 469 471 474 474 480 488 495 497 503 506 506 507 508 507 505 504 504 502 496 490 487 487
345 345 344 344 345 340 340 336 334 320 320 310 304 300 299 295 298 300 302 302 301 301 302 303 305 305 305 304 302 298 297 297 297 302 301 297 295 292 298 301 318 322 322 325 325 325 323 320 322 321 311 303 298 299 299 299 297 297 301 308 309 310 311 311 310 310 309 310 311 312 312 320 325 335 338 340 340 342 344 345 358 359 359 365 363 356 359 359 363 370 372 375 374 374 377 377 383 385 385 388 393 401 400 401 406 410 409 409 409 410 410 402 402 404 403 405 400 405 407 407 407 407 405 406 408 411 408 400 400 399 397 397 395 395 395 392 392 389 387 386 388 388 388 393 395 392 392 388 386 386 387 392 390 391 391 390 389 390 390 393 394 378 379 382 384 384 387 389 395 391 396 396 394 386 384 381 381 376 371 367 366 367 367 365 365 366 363 363 358 358 358 358 363 363 365 360 360 357 356 356 354 352 355 357 359 369 374 374 376 376 376 385 389 393 397 404 408 411 411 415 415 421 421 435 441 447 451 453 457 461 465 465 467 467 467 466 465 464 465 465 464 463 465 465 470 476 482 482 490 494 499 498 505 511 511 513 514 513 511 509 509 508 505 501 497 497
345 345 344 344 345 340 340 336 334 320 320 310 304 300 299 295 298 300 302 302 301 301 302 303 305 305 305 304 302 298 297 297 297 302 301 297 295 292 298 301 318 322 322 325 325 325 323 320 322 321 311 303 298 299 299 299 297 297 301 308 309 310 311 311 310 310 309 310 311 312 312 320 325 335 338 340 340 342 344 345 358 359 359 365 363 356 359 359 363 370 372 375 374 374 377 377 383 385 385 388 393 401 400 401 406 410 409 409 409 410 410 402 402 404 403 405 400 405 407 407 407 407 405 406 408 411 408 400 400 399 397 397 395 395 395 392 392 389 387 386 388 388 388 393 395 392 392 388 386 386 387 392 390 391 391 390 389 390 390 393 394 378 379 382 384 384 387 389 395 391 396 396 394 386 384 381 381 376 371 367 366 367 367 365 365 366 363 363 358 358 358 358 363 363 365 360 360 357 356 356 354 352 355 357 359 369 374 374 376 376 376 385 389 393 397 404 408 411 411 415 415 421 421 435 441 447 451 453 457 461 465 465 467 467 467 466 465 464 465 465 464 463 465 465 470 476 482 482 490 494 499 498 505 511 511 513 514 513 511 509 509 508 505 501 497 497
342 345 347 348 350 347 347 336 334 320 320 310 304 300 299 295 298 300 302 302 301 301 301 300 301 304 306 308 306 304 304 304 304 304 303 301 298 297 301 299 312 315 315 319 319 319 315 315 316 320 314 309 306 304 304 303 308 308 309 312 316 317 315 314 311 311 312 309 309 310 310 316 321 322 323 323 323 330 330 334 339 342 342 339 349 352 357 357 352 363 366 369 369 374 379 379 383 389 392 392 396 399 402 404 412 413 423 419 419 419 419 410 410 412 412 413 415 414 415 419 419 419 414 410 411 410 407 411 416 418 409 409 405 405 405 406 404 400 400 398 403 396 395 395 395 392 392 388 386 386 387 392 390 391 391 390 389 390 390 393 394 397 397 394 393 393 394 396 394 392 395 395 394 392 389 382 382 383 379 377 375 379 377 374 374 371 368 364 364 361 361 359 362 363 363 364 364 362 361 361 360 359 356 356 357 361 361 364 370 370 370 380 386 392 394 400 404 406 407 410 410 416 416 427 433 439 443 448 448 445 452 452 455 455 455 455 455 455 457 459 459 460 468 468 475 483 490 490 495 501 505 508 518 521 521 521 517 513 510 507 507 507 505 504 496 496
342 345 347 348 350 347 347 343 334 315 315 308 304 301 300 303 308 308 305 305 303 303 303 302 304 306 304 306 307 297 295 295 295 297 299 302 300 300 301 303 310 314 311 311 311 312 311 317 315 316 310 304 304 302 302 302 309 309 313 314 318 315 312 312 313 313 311 307 305 304 304 307 310 311 317 315 315 321 320 324 330 334 334 339 346 351 355 356 356 355 363 375 375 376 379 379 377 383 391 391 393 395 398 400 406 416 423 421 421 421 421 427 418 422 423 423 422 425 426 421 421 421 417 418 417 418 419 411 416 418 409 405 405 405 405 406 404 400 400 398 403 396 395 395 398 404 404 397 397 395 402 415 416 417 417 415 412 411 411 412 411 407 407 405 405 405 402 401 398 396 398 398 403 408 405 400 400 399 394 390 388 392 385 383 383 382 380 375 375 369 365 362 360 360 363 366 366 364 364 364 362 365 360 359 359 357 358 359 361 361 361 363 378 388 394 395 395 398 400 404 404 408 408 419 423 428 430 434 432 433 441 443 443 445 445 445 448 448 445 446 451 458 471 471 479 484 492 492 501 504 508 512 519 519 519 517 511 505 501 499 499 499 501 500 493 493
342 345 347 348 350 347 347 343 334 315 315 308 304 301 300 303 308 308 305 305 303 303 303 302 304 306 304 306 307 297 295 295 295 297 299 302 300 300 301 303 310 314 311 311 311 312 311 317 315 316 310 304 304 302 302 302 309 309 313 314 318 315 312 312 313 313 311 307 305 304 304 307 310 311 317 315 315 321 320 324 330 334 334 339 346 351 355 356 356 355 363 375 375 376 379 379 377 383 391 391 393 395 398 400 406 416 423 421 421 421 421 427 418 422 423 423 422 425 426 421 421 421 417 418 417 418 419 411 416 418 409 405 405 405 405 406 404 400 400 398 403 396 395 395 398 404 404 397 397 395 402 415 416 417 417 415 412 411 411 412 411 407 407 405 405 405 402 401 398 396 398 398 403 408 405 400 400 399 394 390 388 392 385 383 383 382 380 375 375 369 365 362 360 360 363 366 366 364 364 364 362 365 360 359 359 357 358 359 361 361 361 363 378 388 394 395 395 398 400 404 404 408 408 419 423 428 430 434 432 433 441 443 443 445 445 445 448 448 445 446 451 458 471 471 479 484 492 492 501 504 508 512 519 519 519 517 511 505 501 499 499 499 501 500 493 493
346 350 347 344 343 342 342 337 331 313 313 305 298 296 297 299 306 305 307 307 307 307 307 307 309 311 309 309 305 301 303 301 301 301 302 303 299 294 294 295 295 298 303 303 303 303 308 306 306 308 303 299 297 300 300 303 308 308 313 311 309 311 311 312 314 314 308 305 304 302 302 302 302 307 307 306 306 306 308 314 324 328 328 329 335 343 345 352 352 356 362 373 375 377 378 378 383 387 389 389 393 404 407 405 404 405 402 409 409 413 413 427 418 422 423 423 422 425 426 421 421 421 417 418 417 418 419 422 426 425 423 418 418 418 415 412 411 408 405 409 406 403 403 403 403 411 411 409 411 419 418 420 422 424 424 425 423 422 422 420 417 415 415 414 415 415 413 416 412 410 410 410 415 420 416 413 412 412 408 406 409 401 399 393 393 393 392 388 388 382 376 371 363 361 360 361 361 362 365 365 367 363 356 356 356 354 357 355 356 356 356 356 364 375 382 389 390 395 397 399 402 402 402 410 414 419 424 426 428 428 430 430 430 431 431 436 435 435 440 444 449 457 474 474 481 486 495 495 497 503 503 505 519 519 519 517 511 505 501 499 499 499 501 500 493 493
328 334 334 329 329 331 331 327 325 312 312 303 295 291 293 296 303 310 310 310 311 311 310 309 310 309 309 309 306 304 305 305 305 305 301 300 295 296 297 296 293 297 298 298 298 302 301 302 304 305 303 300 299 300 300 300 303 303 308 308 310 312 314 311 312 312 309 305 312 309 309 303 302 304 301 299 303 303 306 315 327 331 331 334 339 343 347 352 352 354 357 368 370 377 378 378 383 387 389 389 393 404 407 405 404 405 402 409 409 413 413 424 426 426 425 423 423 424 421 421 421 418 418 422 429 433 436 437 441 440 436 432 432 432 430 425 422 417 418 419 414 418 418 418 418 423 423 432 436 438 439 440 438 435 435 436 437 438 438 440 439 436 437 439 440 443 443 440 434 428 425 425 424 429 428 429 430 430 432 430 429 428 423 425 425 425 422 418 418 411 400 397 385 383 376 374 374 371 368 368 371 367 364 363 362 365 360 360 358 358 358 357 355 357 364 367 376 379 385 388 390 390 390 395 397 401 405 407 408 414 417 424 424 424 424 428 435 435 440 444 449 457 474 474 481 486 495 495 497 503 503 505 509 506 506 501 499 495 491 491 491 494 490 485 484 482
328 334 334 329 329 331 331 327 325 312 312 303 295 291 293 296 303 310 310 310 311 311 310 309 310 309 309 309 306 304 305 305 305 305 301 300 295 296 297 296 293 297 298 298 298 302 301 302 304 305 303 300 299 300 300 300 303 303 308 308 310 312 314 311 312 312 309 305 312 309 309 303 302 304 301 299 303 303 306 315 327 331 331 334 339 343 347 352 352 354 357 368 370 377 378 378 383 387 389 389 393 404 407 405 404 405 402 409 409 413 413 424 426 426 425 423 423 424 421 421 421 418 418 422 429 433 436 437 441 440 436 432 432 432 430 425 422 417 418 419 414 418 418 418 418 423 423 432 436 438 439 440 438 435 435 436 437 438 438 440 439 436 437 439 440 443 443 440 434 428 425 425 424 429 428 429 430 430 432 430 429 428 423 425 425 425 422 418 418 411 400 397 385 383 376 374 374 371 368 368 371 367 364 363 362 365 360 360 358 358 358 357 355 357 364 367 376 379 385 388 390 390 390 395 397 401 405 407 408 414 417 424 424 424 424 428 435 435 440 444 449 457 474 474 481 486 495 495 497 503 503 505 509 506 506 501 499 495 491 491 491 494 490 485 484 482
306 310 311 315 320 320 320 319 317 309 309 302 296 295 293 294 301 304 307 307 310 314 314 312 305 310 314 312 309 307 308 307 307 307 304 301 296 297 297 297 295 296 294 294 294 299 304 303 302 304 306 304 302 301 301 300 300 300 302 305 304 306 309 312 311 309 309 311 315 309 309 308 309 304 302 300 304 304 306 315 327 331 331 334 339 343 347 352 352 354 357 368 370 377 376 376 383 390 396 396 395 403 405 404 404 403 403 401 401 405 412 412 421 424 426 422 424 429 430 431 431 427 427 432 432 440 443 446 450 445 443 441 441 441 437 431 427 428 428 429 423 427 425 425 427 431 431 436 440 441 443 449 451 452 452 453 455 455 455 454 455 450 450 451 453 451 451 442 438 434 437 437 436 441 439 438 439 439 436 435 430 429 430 433 433 433 433 431 431 427 421 412 403 400 396 389 389 383 376 376 369 365 359 358 359 361 364 364 359 359 363 363 357 358 360 366 367 372 377 388 390 390 390 395 397 401 405 407 408 414 417 424 424 424 424 428 430 431 438 446 451 457 464 464 467 472 476 476 478 479 477 475 479 482 484 484 483 482 479 474 474 472 472 474 477 477
297 300 302 306 306 310 310 312 309 304 306 306 303 303 297 296 297 298 304 304 306 310 310 314 312 315 313 315 313 304 303 301 301 301 302 304 300 300 302 302 301 302 303 303 303 305 306 304 303 301 301 302 302 300 299 299 299 299 301 305 304 306 309 312 311 309 309 311 315 309 309 308 309 304 302 300 304 304 306 314 327 331 331 329 337 342 351 352 352 350 359 366 375 376 379 379 384 386 392 392 393 394 395 395 397 400 403 404 404 400 406 406 415 422 421 429 431 436 444 442 442 437 437 446 446 450 451 456 455 453 450 450 450 450 447 446 441 435 437 438 436 428 434 434 436 439 439 440 441 446 449 456 459 465 469 469 466 464 464 466 466 461 459 459 453 452 452 446 444 441 440 440 438 438 442 441 443 443 439 438 437 436 436 436 436 434 431 433 433 430 425 421 414 415 408 397 397 392 384 377 377 370 359 358 359 361 364 364 359 359 363 363 357 358 360 366 367 372 377 381 384 384 384 390 393 395 399 400 401 405 410 418 418 418 418 422 426 428 431 435 449 457 463 463 463 464 464 464 457 458 461 465 471 472 475 475 473 469 465 463 463 462 464 466 468 469
297 300 302 306 306 310 310 312 309 304 306 306 303 303 297 296 297 298 304 304 306 310 310 314 312 315 313 315 313 304 303 301 301 301 302 304 300 300 302 302 301 302 303 303 303 305 306 304 303 301 301 302 302 300 299 299 299 299 301 305 304 306 309 312 311 309 309 311 315 309 309 308 309 304 302 300 304 304 306 314 327 331 331 329 337 342 351 352 352 350 359 366 375 376 379 379 384 386 392 392 393 394 395 395 397 400 403 404 404 400 406 406 415 422 421 429 431 436 444 442 442 437 437 446 446 450 451 456 455 453 450 450 450 450 447 446 441 435 437 438 436 428 434 434 436 439 439 440 441 446 449 456 459 465 469 469 466 464 464 466 466 461 459 459 453 452 452 446 444 441 440 440 438 438 442 441 443 443 439 438 437 436 436 436 436 434 431 433 433 430 425 421 414 415 408 397 397 392 384 377 377 370 359 358 359 361 364 364 359 359 363 363 357 358 360 366 367 372 377 381 384 384 384 390 393 395 399 400 401 405 410 418 418 418 418 422 426 428 431 435 449 457 463 463 463 464 464 464 457 458 461 465 471 472 475 475 473 469 465 463 463 462 464 466 468 469
297 297 296 299 300 302 302 305 304 300 301 301 300 297 301 298 294 291 293 293 300 306 306 309 313 313 313 316 313 304 301 298 298 298 297 301 306 300 300 300 302 305 306 306 306 311 308 304 303 301 301 302 302 300 299 299 299 299 301 305 304 306 310 315 314 314 314 313 314 317 317 312 311 308 303 298 298 298 303 303 324 330 330 332 335 340 343 346 346 349 352 369 371 371 374 374 381 383 384 383 383 385 388 390 394 398 403 404 404 407 408 408 416 418 423 430 433 441 445 444 444 447 447 445 447 455 456 464 464 462 458 458 458 458 458 453 450 450 446 442 441 443 443 445 445 449 449 444 446 458 458 462 467 471 475 475 475 474 474 471 469 466 462 462 458 450 450 446 449 448 443 443 441 440 444 444 444 444 441 442 444 438 437 434 434 434 430 433 433 430 425 421 414 415 408 397 397 392 384 377 377 370 359 357 359 360 359 359 361 361 359 359 357 358 359 360 361 364 369 375 376 376 376 384 387 387 387 386 386 386 395 411 411 412 412 416 416 421 421 433 441 446 452 452 452 451 450 450 449 445 452 459 466 466 463 463 460 460 459 456 456 457 459 460 460 460
300 301 303 304 303 304 304 304 304 305 307 307 302 298 299 298 297 292 289 289 293 298 298 304 304 309 312 312 312 305 302 298 298 298 297 301 306 300 300 300 302 305 306 311 311 311 308 308 305 304 301 303 303 302 302 302 303 303 301 300 307 310 315 316 319 321 321 317 315 314 314 316 315 312 309 311 306 306 302 310 316 319 319 326 331 339 346 349 356 356 356 365 369 370 372 372 376 378 381 380 380 383 388 393 396 401 402 403 403 409 415 415 417 422 430 437 441 448 452 453 453 459 459 461 461 465 475 475 468 464 465 468 468 468 470 465 461 460 456 452 449 451 449 451 451 449 449 451 453 457 464 471 476 475 475 475 475 476 476 473 471 470 466 465 458 456 456 457 454 453 443 443 441 440 444 444 444 444 441 442 444 438 437 434 434 434 430 426 425 425 424 422 419 411 407 404 404 400 394 387 387 382 368 363 358 356 356 358 361 361 361 361 361 360 360 361 361 363 369 368 371 371 371 369 369 370 372 372 375 374 380 397 404 404 404 407 408 412 415 425 426 434 439 441 441 440 436 436 436 438 446 453 454 452 448 448 447 448 452 455 455 453 456 454 452 449
300 301 303 304 303 304 304 304 304 305 307 307 302 298 299 298 297 292 289 289 293 298 298 304 304 309 312 312 312 305 302 298 298 298 297 301 306 300 300 300 302 305 306 311 311 311 308 308 305 304 301 303 303 302 302 302 303 303 301 300 307 310 315 316 319 321 321 317 315 314 314 316 315 312 309 311 306 306 302 310 316 319 319 326 331 339 346 349 356 356 356 365 369 370 372 372 376 378 381 380 380 383 388 393 396 401 402 403 403 409 415 415 417 422 430 437 441 448 452 453 453 459 459 461 461 465 475 475 468 464 465 468 468 468 470 465 461 460 456 452 449 451 449 451 451 449 449 451 453 457 464 471 476 475 475 475 475 476 476 473 471 470 466 465 458 456 456 457 454 453 443 443 441 440 444 444 444 444 441 442 444 438 437 434 434 434 430 426 425 425 424 422 419 411 407 404 404 400 394 387 387 382 368 363 358 356 356 358 361 361 361 361 361 360 360 361 361 363 369 368 371 371 371 369 369 370 372 372 375 374 380 397 404 404 404 407 408 412 415 425 426 434 439 441 441 440 436 436 436 438 446 453 454 452 448 448 447 448 452 455 455 453 456 454 452 449
299 301 301 298 300 299 299 301 304 300 298 298 300 300 301 300 297 292 289 289 293 298 298 304 304 309 312 312 312 305 302 300 300 298 298 296 297 301 300 300 303 304 306 309 309 309 307 306 307 308 305 303 304 301 300 300 299 299 301 305 313 313 316 325 326 325 325 322 320 321 321 318 318 317 315 316 308 308 306 310 319 315 315 321 326 334 342 345 350 350 347 355 360 362 367 367 374 377 379 383 383 389 394 399 403 407 410 410 410 417 425 425 426 432 439 444 449 454 457 461 461 470 470 473 476 476 481 475 475 472 471 474 478 478 478 476 472 469 466 463 458 461 458 455 455 453 453 451 453 457 460 471 474 482 475 475 475 476 476 473 471 470 466 465 458 456 456 457 454 453 448 448 443 443 439 442 441 439 439 438 436 436 437 433 433 431 427 426 427 427 423 421 417 413 410 409 409 404 401 394 394 389 382 375 366 364 362 360 359 359 359 359 363 365 366 365 365 364 363 367 368 365 365 365 364 365 366 369 371 375 378 391 395 395 395 400 404 403 405 415 421 420 420 420 420 423 427 427 429 433 438 443 445 442 443 443 443 445 444 446 446 449 449 446 447 448
311 301 301 298 300 299 299 301 304 300 298 298 300 300 301 300 299 295 294 294 290 294 294 301 301 302 306 313 313 308 301 298 298 294 294 292 291 292 296 295 302 300 302 302 302 302 304 305 305 306 306 306 307 304 304 304 304 304 306 308 312 314 317 322 324 325 325 332 330 323 323 323 324 323 319 313 313 308 308 310 311 312 312 312 316 324 336 336 343 343 347 350 355 361 366 366 372 370 378 384 384 395 402 405 410 412 414 418 418 421 423 423 432 436 446 446 456 459 467 470 470 478 482 482 479 479 478 481 478 482 476 477 478 478 478 479 478 477 466 463 458 461 458 455 455 453 453 451 453 457 460 471 474 482 482 482 482 480 480 475 477 474 469 467 468 463 459 459 453 451 453 453 444 443 445 442 441 439 439 442 437 436 437 434 434 432 429 426 426 426 425 420 416 413 412 409 409 406 404 402 402 400 393 386 380 378 375 373 371 371 371 371 372 371 369 370 371 369 367 365 367 373 373 373 370 371 369 371 373 377 379 384 387 387 387 391 396 399 403 403 406 406 407 409 409 412 414 414 417 422 427 430 436 438 437 437 434 433 434 437 437 440 438 439 444 447
311 301 301 298 300 299 299 301 304 300 298 298 300 300 301 300 299 295 294 294 290 294 294 301 301 302 306 313 313 308 301 298 298 294 294 292 291 292 296 295 302 300 302 302 302 302 304 305 305 306 306 306 307 304 304 304 304 304 306 308 312 314 317 322 324 325 325 332 330 323 323 323 324 323 319 313 313 308 308 310 311 312 312 312 316 324 336 336 343 343 347 350 355 361 366 366 372 370 378 384 384 395 402 405 410 412 414 418 418 421 423 423 432 436 446 446 456 459 467 470 470 478 482 482 479 479 478 481 478 482 476 477 478 478 478 479 478 477 466 463 458 461 458 455 455 453 453 451 453 457 460 471 474 482 482 482 482 480 480 475 477 474 469 467 468 463 459 459 453 451 453 453 444 443 445 442 441 439 439 442 437 436 437 434 434 432 429 426 426 426 425 420 416 413 412 409 409 406 404 402 402 400 393 386 380 378 375 373 371 371 371 371 372 371 369 370 371 369 367 365 367 373 373 373 370 371 369 371 373 377 379 384 387 387 387 391 396 399 403 403 406 406 407 409 409 412 414 414 417 422 427 430 436 438 437 437 434 433 434 437 437 440 438 439 444 447
311 309 309 307 305 304 304 306 307 308 305 305 305 306 305 304 300 299 296 296 293 293 302 302 305 300 310 313 315 312 306 300 300 297 297 291 289 288 291 295 301 300 298 300 300 300 302 302 302 301 304 305 308 304 305 305 306 306 309 310 312 317 320 322 329 329 331 331 332 332 332 325 324 321 317 313 311 309 309 307 303 302 302 305 310 313 324 331 336 336 344 352 356 358 366 366 370 370 377 386 386 389 394 400 407 418 417 421 421 423 436 442 442 446 452 457 462 467 465 469 469 482 482 482 479 479 478 481 478 482 476 477 478 478 478 479 478 477 475 471 465 460 461 461 461 455 455 452 453 456 460 470 472 477 480 480 479 473 473 472 472 473 471 462 458 456 455 455 453 446 446 446 448 445 446 443 440 441 441 438 436 436 435 434 434 432 430 427 425 425 421 420 416 414 412 411 411 409 413 415 415 412 401 394 390 386 383 381 381 381 382 384 384 383 379 377 378 376 374 373 373 378 378 378 377 375 373 372 374 376 378 382 384 384 384 383 386 390 393 393 395 391 393 397 397 402 406 406 408 411 413 418 424 426 426 424 424 425 425 425 425 425 428 439 444 447
340 338 338 333 328 323 323 321 321 321 319 318 318 313 310 306 300 299 298 298 298 298 300 300 298 298 301 303 305 304 301 302 302 303 303 305 307 305 303 300 293 298 296 296 296 296 295 295 294 293 300 303 304 304 307 309 309 309 307 308 312 315 321 330 336 338 340 340 345 345 345 337 331 325 318 308 308 305 305 303 303 303 303 303 296 305 321 334 338 338 344 360 362 369 378 378 383 386 387 384 384 386 385 386 394 418 417 421 421 423 436 442 442 446 452 457 462 467 465 469 469 482 484 484 486 489 486 490 488 493 482 482 482 482 482 485 482 482 483 482 483 470 467 470 470 464 464 464 463 465 470 466 469 476 476 467 467 471 471 469 468 465 462 460 456 453 452 452 448 450 447 447 451 453 449 449 444 442 442 441 440 440 436 435 435 435 432 429 425 425 424 421 419 419 419 418 418 419 422 425 424 424 411 409 401 395 393 393 392 392 394 397 397 396 393 391 389 384 386 384 385 378 378 378 376 381 381 378 378 382 383 383 383 383 383 387 387 388 391 394 391 394 395 395 395 395 406 406 408 411 413 418 424 426 426 424 424 425 425 425 425 425 428 434 441 445
340 338 338 333 328 323 323 321 321 321 319 318 318 313 310 306 300 299 298 298 298 298 300 300 298 298 301 303 305 304 301 302 302 303 303 305 307 305 303 300 293 298 296 296 296 296 295 295 294 293 300 303 304 304 307 309 309 309 307 308 312 315 321 330 336 338 340 340 345 345 345 337 331 325 318 308 308 305 305 303 303 303 303 303 296 305 321 334 338 338 344 360 362 369 378 378 383 386 387 384 384 386 385 386 394 418 417 421 421 423 436 442 442 446 452 457 462 467 465 469 469 482 484 484 486 489 486 490 488 493 482 482 482 482 482 485 482 482 483 482 483 470 467 470 470 464 464 464 463 465 470 466 469 476 476 467 467 471 471 469 468 465 462 460 456 453 452 452 448 450 447 447 451 453 449 449 444 442 442 441 440 440 436 435 435 435 432 429 425 425 424 421 419 419 419 418 418 419 422 425 424 424 411 409 401 395 393 393 392 392 394 397 397 396 393 391 389 384 386 384 385 378 378 378 376 381 381 378 378 382 383 383 383 383 383 387 387 388 391 394 391 394 395 395 395 395 406 406 408 411 413 418 424 426 426 424 424 425 425 425 425 425 428 434 441 445
347 347 344 341 336 330 330 327 326 323 322 322 322 319 318 311 308 298 299 299 294 289 293 293 296 296 300 302 303 302 302 304 304 307 307 308 306 304 305 303 297 295 291 287 287 287 287 290 297 299 298 300 303 302 304 307 307 307 310 307 311 311 323 332 336 341 343 343 345 346 346 345 337 327 321 314 303 307 307 309 306 305 305 303 304 301 321 327 334 338 344 360 362 369 378 378 383 386 387 384 386 386 385 386 394 398 397 403 403 411 419 434 434 445 456 468 470 474 476 481 481 487 492 492 496 500 506 505 502 496 499 496 496 496 496 496 497 498 497 499 497 498 498 498 491 491 491 485 481 478 478 482 481 485 485 486 486 485 485 483 481 476 474 474 469 465 462 462 465 459 457 457 453 450 448 452 448 447 447 446 447 445 442 434 434 431 431 430 427 427 424 424 433 440 439 436 436 434 436 438 439 439 438 437 437 431 427 424 421 421 418 409 409 405 404 407 410 415 416 416 417 420 420 420 419 417 418 418 411 406 383 383 383 383 383 387 387 388 391 394 391 394 395 395 395 395 395 395 397 400 400 405 411 414 418 412 412 413 414 414 414 416 423 430 438 445
351 351 348 349 345 342 342 338 341 332 328 327 327 325 325 323 318 312 302 302 294 289 288 288 289 296 299 299 300 299 298 301 301 302 302 303 304 304 305 303 296 295 289 287 287 292 292 297 299 297 297 301 302 303 302 304 304 304 308 310 313 319 327 334 341 344 345 345 348 346 346 344 341 327 321 314 303 307 307 309 306 305 305 303 304 301 321 327 334 350 350 359 368 374 379 379 380 387 388 387 387 387 388 388 386 391 394 401 401 409 421 435 435 438 448 461 468 473 477 480 480 493 498 498 500 503 510 510 507 500 499 503 502 502 502 502 502 503 506 501 498 502 496 494 496 496 496 492 490 487 485 486 483 484 489 488 488 486 486 484 482 481 478 475 472 471 468 468 464 461 455 455 452 448 446 448 449 450 450 448 449 445 443 440 440 439 439 437 429 426 426 432 437 440 443 440 440 443 443 443 444 444 445 446 444 442 438 435 433 433 429 425 425 424 404 407 410 415 416 416 417 420 420 420 419 417 418 418 411 406 403 404 404 404 404 404 398 399 398 396 393 393 393 395 394 394 395 395 395 395 397 402 399 399 399 400 400 398 401 403 403 405 412 414 417 420
351 351 348 349 345 342 342 338 341 332 328 327 327 325 325 323 318 312 302 302 294 289 288 288 289 296 299 299 300 299 298 301 301 302 302 303 304 304 305 303 296 295 289 287 287 292 292 297 299 297 297 301 302 303 302 304 304 304 308 310 313 319 327 334 341 344 345 345 348 346 346 344 341 327 321 314 303 307 307 309 306 305 305 303 304 301 321 327 334 350 350 359 368 374 379 379 380 387 388 387 387 387 388 388 386 391 394 401 401 409 421 435 435 438 448 461 468 473 477 480 480 493 498 498 500 503 510 510 507 500 499 503 502 502 502 502 502 503 506 501 498 502 496 494 496 496 496 492 490 487 485 486 483 484 489 488 488 486 486 484 482 481 478 475 472 471 468 468 464 461 455 455 452 448 446 448 449 450 450 448 449 445 443 440 440 439 439 437 429 426 426 432 437 440 443 440 440 443 443 443 444 444 445 446 444 442 438 435 433 433 429 425 425 424 404 407 410 415 416 416 417 420 420 420 419 417 418 418 411 406 403 404 404 404 404 404 398 399 398 396 393 393 393 395 394 394 395 395 395 395 397 402 399 399 399 400 400 398 401 403 403 405 412 414 417 420
349 349 349 349 348 348 348 344 343 339 337 339 339 337 334 333 325 325 313 313 295 291 293 293 298 293 297 300 300 300 300 300 300 299 301 301 303 304 304 303 299 298 298 297 297 297 297 295 299 299 299 303 304 308 308 307 304 304 308 310 313 319 327 334 341 344 345 345 348 346 346 344 341 330 323 317 322 320 320 318 313 311 311 309 308 317 322 326 337 343 343 356 366 374 379 379 381 387 386 392 391 391 393 394 391 396 396 401 401 410 427 431 431 437 446 452 458 467 471 478 478 492 499 499 503 505 506 509 507 507 508 512 515 515 516 516 515 514 510 509 506 505 501 500 505 505 505 502 498 494 491 490 488 487 488 490 490 494 494 490 488 482 481 479 476 474 473 473 466 462 456 456 449 448 447 449 449 448 450 450 448 446 446 444 444 443 440 438 432 428 428 433 440 443 447 446 446 446 443 443 444 444 445 446 444 442 438 435 433 433 429 425 425 424 425 425 425 425 423 425 435 434 434 434 433 435 435 435 433 428 420 418 419 411 411 411 409 405 409 405 404 402 401 401 400 400 400 400 400 401 399 400 399 400 398 397 397 400 405 407 407 409 410 409 410 411
349 349 346 349 351 352 352 352 352 349 346 343 343 342 337 334 332 329 320 320 292 285 290 290 298 299 300 302 302 302 301 300 300 302 304 304 304 304 304 304 302 298 298 297 297 297 297 295 299 299 299 303 304 308 308 307 307 307 308 310 315 322 328 330 339 335 341 341 348 345 345 345 341 339 331 324 322 317 318 318 321 320 320 320 320 325 327 330 339 342 342 349 358 367 375 375 388 395 396 397 399 399 402 405 405 399 401 407 407 418 431 439 439 444 451 453 458 463 465 473 473 486 492 505 505 506 520 516 516 512 513 514 515 515 515 515 517 512 511 513 518 514 511 509 511 511 511 507 504 501 497 497 496 495 495 495 495 494 494 492 494 485 480 478 476 475 474 474 467 462 456 456 448 447 446 446 444 444 447 447 449 446 446 444 444 443 440 438 432 428 428 433 440 443 447 446 446 446 448 450 452 452 453 454 452 453 455 454 450 450 446 443 443 442 442 444 444 441 435 434 434 440 440 441 441 443 442 442 440 438 433 430 423 420 420 420 418 416 417 412 411 411 414 413 410 410 408 408 408 411 412 410 406 407 410 410 410 411 414 416 416 416 411 409 408 409
349 349 346 349 351 352 352 352 352 349 346 343 343 342 337 334 332 329 320 320 292 285 290 290 298 299 300 302 302 302 301 300 300 302 304 304 304 304 304 304 302 298 298 297 297 297 297 295 299 299 299 303 304 308 308 307 307 307 308 310 315 322 328 330 339 335 341 341 348 345 345 345 341 339 331 324 322 317 318 318 321 320 320 320 320 325 327 330 339 342 342 349 358 367 375 375 388 395 396 397 399 399 402 405 405 399 401 407 407 418 431 439 439 444 451 453 458 463 465 473 473 486 492 505 505 506 520 516 516 512 513 514 515 515 515 515 517 512 511 513 518 514 511 509 511 511 511 507 504 501 497 497 496 495 495 495 495 494 494 492 494 485 480 478 476 475 474 474 467 462 456 456 448 447 446 446 444 444 447 447 449 446 446 444 444 443 440 438 432 428 428 433 440 443 447 446 446 446 448 450 452 452 453 454 452 453 455 454 450 450 446 443 443 442 442 444 444 441 435 434 434 440 440 441 441 443 442 442 440 438 433 430 423 420 420 420 418 416 417 412 411 411 414 413 410 410 408 408 408 411 412 410 406 407 410 410 410 411 414 416 416 416 411 409 408 409
354 354 353 354 357 358 358 360 361 357 354 351 351 347 345 344 341 337 327 327 299 292 294 295 295 301 300 302 302 302 301 300 300 302 304 304 304 304 304 304 302 302 300 299 299 298 298 298 299 299 302 305 310 313 312 310 310 310 308 310 318 326 327 338 342 344 350 351 351 346 346 338 337 335 336 335 327 325 330 330 336 335 335 334 334 334 334 335 337 344 344 345 351 358 372 372 384 397 399 407 409 409 413 419 420 414 423 424 424 431 448 450 450 452 458 466 465 467 470 474 474 491 499 512 512 515 515 513 517 515 514 514 514 514 513 513 514 517 520 520 522 524 521 520 517 517 517 509 511 506 502 498 495 493 494 497 497 498 498 498 498 492 488 482 479 475 474 467 467 462 456 456 448 447 446 446 444 444 447 447 449 447 449 447 447 446 441 439 436 434 434 433 437 443 446 451 451 453 457 458 460 460 462 463 461 462 465 462 454 454 451 450 451 451 450 449 451 452 448 446 444 447 447 447 447 450 452 452 452 449 446 442 434 431 431 431 430 426 426 422 423 423 425 426 423 423 418 418 417 417 416 417 416 418 420 417 417 416 416 416 416 416 418 417 418 417
354 354 353 354 357 358 358 360 361 357 354 351 351 347 345 344 341 337 327 327 299 292 294 295 295 301 300 302 302 302 301 300 300 302 304 304 304 304 304 304 302 302 300 299 299 298 298 298 299 299 302 305 310 313 312 310 310 310 308 310 318 326 327 338 342 344 350 351 351 346 346 338 337 335 336 335 327 325 330 330 336 335 335 334 334 334 334 335 337 344 344 345 351 358 372 372 384 397 399 407 409 409 413 419 420 414 423 424 424 431 448 450 450 452 458 466 465 467 470 474 474 491 499 512 512 515 515 513 517 515 514 514 514 514 513 513 514 517 520 520 522 524 521 520 517 517 517 509 511 506 502 498 495 493 494 497 497 498 498 498 498 492 488 482 479 475 474 467 467 462 456 456 448 447 446 446 444 444 447 447 449 447 449 447 447 446 441 439 436 434 434 433 437 443 446 451 451 453 457 458 460 460 462 463 461 462 465 462 454 454 451 450 451 451 450 449 451 452 448 446 444 447 447 447 447 450 452 452 452 449 446 442 434 431 431 431 430 426 426 422 423 423 425 426 423 423 418 418 417 417 416 417 416 418 420 417 417 416 416 416 416 416 418 417 418 417
363 363 359 361 362 363 363 361 362 360 359 351 347 347 345 344 341 337 327 327 299 292 294 295 295 301 302 304 305 304 304 305 305 305 305 305 305 305 304 303 301 300 301 300 300 299 299 297 297 299 302 305 309 309 311 310 310 310 310 312 317 324 328 345 349 350 348 346 346 348 348 344 345 345 343 339 343 341 339 339 344 344 344 347 348 341 336 333 335 342 342 351 348 351 359 359 377 392 400 405 410 410 414 419 425 428 432 437 437 444 453 454 457 457 464 473 476 481 482 487 487 501 504 510 510 506 509 513 512 514 514 513 512 512 511 511 512 516 518 519 518 517 517 518 512 512 512 510 506 506 502 498 495 493 494 497 498 498 498 498 498 492 488 482 479 477 478 469 469 464 459 459 450 449 448 446 445 445 449 449 451 452 451 452 452 446 444 442 441 439 439 437 443 445 451 454 454 460 463 466 467 467 471 472 473 475 479 477 471 471 469 468 464 464 465 462 466 462 462 458 455 460 460 458 458 462 461 461 461 459 456 446 442 437 437 437 435 433 431 430 431 431 438 441 443 443 438 438 432 427 425 426 431 428 426 425 423 423 421 420 420 419 424 424 425 425
363 359 359 361 362 363 363 361 362 360 359 357 357 357 353 350 346 342 337 337 321 312 305 298 298 300 300 300 300 303 304 306 306 306 304 304 303 303 302 302 297 298 299 302 302 303 303 303 304 305 305 310 310 315 317 311 309 309 309 308 312 323 334 338 341 344 343 346 346 349 349 352 349 350 349 350 353 354 356 356 343 345 345 354 354 349 343 341 338 339 339 350 357 358 354 354 359 373 386 392 398 405 405 415 420 427 435 442 442 448 457 462 466 466 472 475 482 486 489 496 496 505 510 509 509 510 508 506 505 506 510 504 512 512 511 511 512 516 518 519 518 517 517 518 512 512 512 510 506 500 499 492 491 492 493 495 497 497 497 496 496 493 491 483 477 474 473 468 468 466 464 464 453 451 449 445 444 447 450 450 449 450 448 448 448 444 446 448 448 454 454 451 452 457 459 465 465 471 471 473 477 483 483 488 490 489 489 488 487 487 486 476 473 473 470 471 470 469 462 457 454 461 461 463 463 466 466 464 460 460 460 450 441 438 438 438 438 438 440 440 440 442 451 451 452 451 451 451 446 440 435 429 433 436 436 433 431 431 428 426 426 428 427 427 428 431
363 359 359 361 362 363 363 361 362 360 359 357 357 357 353 350 346 342 337 337 321 312 305 298 298 300 300 300 300 303 304 306 306 306 304 304 303 303 302 302 297 298 299 302 302 303 303 303 304 305 305 310 310 315 317 311 309 309 309 308 312 323 334 338 341 344 343 346 346 349 349 352 349 350 349 350 353 354 356 356 343 345 345 354 354 349 343 341 338 339 339 350 357 358 354 354 359 373 386 392 398 405 405 415 420 427 435 442 442 448 457 462 466 466 472 475 482 486 489 496 496 505 510 509 509 510 508 506 505 506 510 504 512 512 511 511 512 516 518 519 518 517 517 518 512 512 512 510 506 500 499 492 491 492 493 495 497 497 497 496 496 493 491 483 477 474 473 468 468 466 464 464 453 451 449 445 444 447 450 450 449 450 448 448 448 444 446 448 448 454 454 451 452 457 459 465 465 471 471 473 477 483 483 488 490 489 489 488 487 487 486 476 473 473 470 471 470 469 462 457 454 461 461 463 463 466 466 464 460 460 460 450 441 438 438 438 438 438 440 440 440 442 451 451 452 451 451 451 446 440 435 429 433 436 436 433 431 431 428 426 426 428 427 427 428 431
369 371 371 369 366 367 367 360 360 363 363 362 358 358 354 352 351 345 339 339 324 315 306 302 302 299 296 291 298 297 297 298 298 300 300 300 300 300 300 299 297 298 303 306 306 309 310 310 310 309 307 313 316 318 315 316 317 317 317 312 312 311 320 327 338 342 343 346 346 350 350 355 357 357 357 361 361 362 367 367 356 360 360 357 354 354 353 349 344 343 351 351 355 361 363 363 361 361 363 371 385 394 394 400 411 421 431 440 440 447 464 471 478 478 485 489 482 486 489 496 496 505 510 509 509 510 508 506 505 506 510 504 502 502 503 503 502 502 501 501 500 501 502 504 503 502 502 502 497 494 491 491 496 491 490 491 489 489 489 492 495 487 484 480 474 471 467 464 464 461 459 459 450 449 447 443 440 443 443 443 443 443 445 445 445 443 447 454 460 466 468 468 472 472 473 475 475 479 482 485 488 495 495 497 493 493 492 491 491 491 490 482 477 477 469 466 465 467 461 456 454 455 455 458 458 459 460 462 458 454 454 451 447 445 445 445 443 444 442 444 446 449 455 455 454 453 453 453 452 451 448 443 442 437 437 438 437 431 428 426 426 428 427 427 428 431
380 377 377 370 365 363 363 367 368 369 368 367 364 364 358 356 355 352 348 348 333 326 321 310 310 295 290 290 291 298 298 295 295 292 292 289 289 291 302 307 301 302 302 304 304 305 309 309 309 311 310 312 313 310 308 310 314 314 314 316 316 315 315 319 325 333 341 346 346 347 347 359 363 368 375 381 383 386 385 385 376 372 372 368 359 364 366 365 367 366 359 359 356 357 357 357 361 360 356 371 385 394 394 400 411 421 431 440 440 447 464 471 478 478 485 489 492 500 503 505 505 510 516 516 516 513 511 509 508 505 503 498 494 494 497 492 492 489 486 486 483 483 486 488 489 488 488 488 488 486 486 485 484 488 493 483 485 485 485 487 490 486 482 481 474 472 463 455 455 450 447 447 441 441 438 439 439 438 435 435 437 436 440 441 441 444 456 468 471 477 479 479 481 482 486 488 488 490 492 495 498 501 501 496 495 494 493 491 482 482 479 475 471 471 466 463 459 457 455 452 450 447 447 450 450 451 453 455 456 454 453 451 448 447 447 446 446 446 446 449 446 449 455 455 454 453 453 453 452 451 448 443 442 437 437 438 437 437 436 436 436 439 441 442 442 441
380 377 377 370 365 363 363 367 368 369 368 367 364 364 358 356 355 352 348 348 333 326 321 310 310 295 290 290 291 298 298 295 295 292 292 289 289 291 302 307 301 302 302 304 304 305 309 309 309 311 310 312 313 310 308 310 314 314 314 316 316 315 315 319 325 333 341 346 346 347 347 359 363 368 375 381 383 386 385 385 376 372 372 368 359 364 366 365 367 366 359 359 356 357 357 357 361 360 356 371 385 394 394 400 411 421 431 440 440 447 464 471 478 478 485 489 492 500 503 505 505 510 516 516 516 513 511 509 508 505 503 498 494 494 497 492 492 489 486 486 483 483 486 488 489 488 488 488 488 486 486 485 484 488 493 483 485 485 485 487 490 486 482 481 474 472 463 455 455 450 447 447 441 441 438 439 439 438 435 435 437 436 440 441 441 444 456 468 471 477 479 479 481 482 486 488 488 490 492 495 498 501 501 496 495 494 493 491 482 482 479 475 471 471 466 463 459 457 455 452 450 447 447 450 450 451 453 455 456 454 453 451 448 447 447 446 446 446 446 449 446 449 455 455 454 453 453 453 452 451 448 443 442 437 437 438 437 437 436 436 436 439 441 442 442 441
377 375 375 376 371 370 370 377 375 375 372 369 370 370 368 361 357 361 358 358 340 329 336 324 324 311 300 299 306 304 301 301 301 300 299 299 299 301 304 308 303 303 303 303 303 303 304 304 304 307 312 313 313 312 308 305 304 304 304 312 316 316 318 319 323 327 334 341 341 348 348 360 365 370 378 386 389 389 389 389 389 388 388 368 359 364 366 365 367 366 359 359 356 357 357 357 361 360 356 358 365 371 371 381 401 417 422 431 431 437 452 472 483 483 489 488 492 498 502 508 508 517 520 519 519 519 517 513 508 502 495 490 486 486 482 480 480 480 478 474 472 474 471 470 473 473 473 473 474 472 475 473 472 467 466 467 464 464 464 462 463 459 457 456 451 442 439 436 436 434 432 432 424 422 422 421 423 422 425 433 433 443 453 457 457 469 470 477 485 491 500 500 508 512 514 511 511 510 512 511 511 505 505 498 499 493 489 482 480 480 479 472 469 469 461 454 450 450 450 452 453 454 454 452 451 451 453 455 456 454 453 451 448 447 447 446 446 446 446 449 451 454 464 465 466 464 464 464 462 458 455 457 459 452 450 448 449 449 451 451 451 449 465 470 467 456
378 376 376 378 378 384 384 383 380 376 376 374 372 372 370 365 361 362 364 364 350 344 339 334 331 331 309 305 301 303 301 302 302 302 301 300 300 302 304 304 296 294 295 296 296 298 301 301 304 305 308 308 308 310 303 305 310 310 310 311 317 318 323 322 317 320 334 341 348 348 348 360 365 370 378 386 389 389 389 389 389 388 388 384 377 376 372 374 372 372 366 366 361 362 364 364 365 369 364 363 360 367 367 374 391 409 419 429 429 435 448 468 471 471 481 484 482 489 493 498 498 512 512 512 510 510 507 504 499 495 491 487 483 483 481 476 476 473 471 469 466 460 463 463 465 471 471 471 467 466 466 466 464 461 460 460 459 459 459 459 460 458 451 448 441 436 435 434 432 432 432 432 423 420 418 421 418 419 422 427 427 444 452 460 460 468 475 482 488 496 503 503 512 517 519 519 519 518 516 515 507 497 497 496 495 491 487 482 480 480 479 472 469 469 461 454 450 450 450 452 453 454 454 452 453 453 454 456 458 458 454 452 449 448 448 450 450 446 443 445 449 454 457 459 463 467 467 467 472 477 479 478 476 484 487 487 487 487 490 496 496 493 495 495 501 505
378 376 376 378 378 384 384 383 380 376 376 374 372 372 370 365 361 362 364 364 350 344 339 334 331 331 309 305 301 303 301 302 302 302 301 300 300 302 304 304 296 294 295 296 296 298 301 301 304 305 308 308 308 310 303 305 310 310 310 311 317 318 323 322 317 320 334 341 348 348 348 360 365 370 378 386 389 389 389 389 389 388 388 384 377 376 372 374 372 372 366 366 361 362 364 364 365 369 364 363 360 367 367 374 391 409 419 429 429 435 448 468 471 471 481 484 482 489 493 498 498 512 512 512 510 510 507 504 499 495 491 487 483 483 481 476 476 473 471 469 466 460 463 463 465 471 471 471 467 466 466 466 464 461 460 460 459 459 459 459 460 458 451 448 441 436 435 434 432 432 432 432 423 420 418 421 418 419 422 427 427 444 452 460 460 468 475 482 488 496 503 503 512 517 519 519 519 518 516 515 507 497 497 496 495 491 487 482 480 480 479 472 469 469 461 454 450 450 450 452 453 454 454 452 453 453 454 456 458 458 454 452 449 448 448 450 450 446 443 445 449 454 457 459 463 467 467 467 472 477 479 478 476 484 487 487 487 487 490 496 496 493 495 495 501 505
384 383 383 386 386 387 387 387 386 384 383 381 377 372 372 369 368 363 368 368 356 347 345 345 327 327 319 308 303 304 302 300 300 302 303 301 301 302 302 301 295 292 289 290 290 292 295 295 300 301 304 308 308 310 303 305 310 310 310 311 317 318 323 322 317 320 325 334 346 346 346 365 370 373 384 391 395 397 395 403 403 411 411 408 402 400 392 386 383 378 375 375 373 372 372 372 372 373 370 362 357 363 363 368 375 393 409 423 423 432 452 460 467 468 468 464 468 476 479 485 485 501 504 503 500 500 496 491 486 481 479 479 478 478 478 469 469 467 466 468 468 455 455 456 458 458 458 458 455 454 454 454 456 452 452 451 450 448 448 448 448 446 444 442 437 432 435 432 429 429 427 427 421 420 415 416 416 418 420 425 425 443 451 459 459 465 469 477 485 496 500 503 512 517 519 519 519 518 516 515 507 497 497 496 495 491 487 482 479 479 475 467 462 457 457 452 451 453 454 453 453 452 452 457 455 455 456 457 460 461 461 454 452 450 450 446 446 444 443 444 445 449 466 472 481 486 486 486 484 486 487 486 489 492 497 493 491 495 495 500 500 509 510 510 512 510
384 390 394 394 395 391 391 386 380 380 381 379 377 373 373 367 363 362 362 362 359 354 347 348 348 348 343 325 311 300 296 296 296 299 300 301 301 302 302 301 295 292 289 290 290 292 295 295 300 301 304 305 306 303 306 309 310 310 310 310 314 317 317 318 319 317 318 326 341 341 341 357 368 374 383 392 402 403 406 417 417 412 412 415 413 411 412 409 407 403 396 396 393 389 380 380 375 377 369 358 362 366 373 373 377 388 404 414 414 421 446 453 454 456 456 461 462 469 472 478 478 493 494 495 491 491 488 482 480 476 467 465 466 466 461 457 457 455 456 451 449 448 448 445 443 441 441 441 437 438 438 441 440 445 437 435 436 437 437 437 438 440 438 435 434 435 429 427 426 426 423 423 422 418 417 416 416 418 420 425 425 443 451 459 459 465 469 477 485 496 500 500 511 513 513 514 514 513 509 505 502 492 491 491 488 485 482 478 473 473 469 464 457 451 451 448 450 452 453 453 452 452 452 458 456 456 458 460 460 461 460 456 451 448 448 443 443 444 440 441 447 452 472 479 484 486 486 486 490 499 500 499 506 506 513 503 506 508 508 511 511 513 513 518 516 517
384 390 394 394 395 391 391 386 380 380 381 379 377 373 373 367 363 362 362 362 359 354 347 348 348 348 343 325 311 300 296 296 296 299 300 301 301 302 302 301 295 292 289 290 290 292 295 295 300 301 304 305 306 303 306 309 310 310 310 310 314 317 317 318 319 317 318 326 341 341 341 357 368 374 383 392 402 403 406 417 417 412 412 415 413 411 412 409 407 403 396 396 393 389 380 380 375 377 369 358 362 366 373 373 377 388 404 414 414 421 446 453 454 456 456 461 462 469 472 478 478 493 494 495 491 491 488 482 480 476 467 465 466 466 461 457 457 455 456 451 449 448 448 445 443 441 441 441 437 438 438 441 440 445 437 435 436 437 437 437 438 440 438 435 434 435 429 427 426 426 423 423 422 418 417 416 416 418 420 425 425 443 451 459 459 465 469 477 485 496 500 500 511 513 513 514 514 513 509 505 502 492 491 491 488 485 482 478 473 473 469 464 457 451 451 448 450 452 453 453 452 452 452 458 456 456 458 460 460 461 460 456 451 448 448 443 443 444 440 441 447 452 472 479 484 486 486 486 490 499 500 499 506 506 513 503 506 508 508 511 511 513 513 518 516 517
381 386 393 393 394 390 390 383 378 380 382 382 379 373 373 366 364 366 369 369 359 354 347 348 348 348 343 325 311 300 296 296 296 299 300 299 299 302 306 307 303 303 301 297 297 295 295 296 296 299 300 302 304 305 305 305 304 304 305 305 307 309 315 318 316 315 310 312 325 325 325 353 363 373 378 390 400 403 412 417 417 423 423 419 419 419 419 419 420 414 412 408 408 399 395 395 382 385 379 365 364 364 366 366 373 390 395 405 405 409 428 437 444 445 445 448 453 457 461 469 469 473 478 478 472 472 465 465 459 454 457 457 452 452 450 446 446 444 443 439 438 440 443 436 431 425 425 430 430 427 422 420 422 427 429 426 428 431 431 437 438 440 438 435 434 435 429 427 426 426 423 423 422 418 417 412 412 415 419 427 427 442 450 457 457 462 469 480 491 498 498 511 511 511 510 510 510 507 502 497 493 485 485 485 481 479 472 470 466 466 465 461 455 452 452 450 449 449 450 451 448 446 446 446 452 452 452 453 458 460 461 456 452 450 450 446 446 445 446 450 457 465 476 483 487 491 496 496 496 503 516 510 520 511 509 514 519 530 530 525 525 526 525 523 528 527
386 387 388 388 394 390 390 383 378 380 382 382 379 373 373 366 364 366 369 369 369 369 363 358 350 350 352 339 317 302 297 295 295 296 295 296 301 301 303 306 302 298 299 299 299 296 297 298 298 298 303 304 304 304 301 302 303 303 302 302 299 300 306 310 309 309 307 308 318 318 318 331 346 359 373 380 385 398 404 417 417 422 422 426 427 426 426 426 425 426 412 411 411 408 400 400 393 386 379 374 366 365 371 371 376 380 386 390 390 395 410 419 430 434 434 432 443 445 448 449 449 452 452 447 442 442 435 434 435 436 436 436 435 435 433 435 436 436 437 430 424 423 443 436 431 425 425 430 430 427 422 420 422 427 429 426 428 431 431 431 435 435 437 431 428 428 422 421 421 421 420 420 416 413 412 407 409 411 420 422 422 438 444 450 450 460 475 485 491 497 504 509 509 508 508 507 507 505 500 496 493 489 486 486 482 478 475 472 471 471 468 459 454 456 456 451 449 448 448 448 448 452 452 455 455 455 455 455 455 454 453 447 447 451 451 451 453 453 457 463 467 474 484 492 498 501 506 506 506 511 514 514 520 526 524 520 525 533 533 540 540 540 540 531 536 537
386 387 388 388 394 390 390 383 378 380 382 382 379 373 373 366 364 366 369 369 369 369 363 358 350 350 352 339 317 302 297 295 295 296 295 296 301 301 303 306 302 298 299 299 299 296 297 298 298 298 303 304 304 304 301 302 303 303 302 302 299 300 306 310 309 309 307 308 318 318 318 331 346 359 373 380 385 398 404 417 417 422 422 426 427 426 426 426 425 426 412 411 411 408 400 400 393 386 379 374 366 365 371 371 376 380 386 390 390 395 410 419 430 434 434 432 443 445 448 449 449 452 452 447 442 442 435 434 435 436 436 436 435 435 433 435 436 436 437 430 424 423 443 436 431 425 425 430 430 427 422 420 422 427 429 426 428 431 431 431 435 435 437 431 428 428 422 421 421 421 420 420 416 413 412 407 409 411 420 422 422 438 444 450 450 460 475 485 491 497 504 509 509 508 508 507 507 505 500 496 493 489 486 486 482 478 475 472 471 471 468 459 454 456 456 451 449 448 448 448 448 452 452 455 455 455 455 455 455 454 453 447 447 451 451 451 453 453 457 463 467 474 484 492 498 501 506 506 506 511 514 514 520 526 524 520 525 533 533 540 540 540 540 531 536 537
386 387 388 388 386 387 387 385 385 386 387 388 382 376 376 372 372 375 373 373 373 371 369 365 361 361 346 340 331 306 301 296 296 296 297 297 301 301 306 309 307 305 303 302 302 302 303 303 303 301 302 303 304 305 305 306 305 305 305 305 302 297 300 304 304 306 305 306 310 310 310 310 322 329 345 357 369 385 387 399 405 405 405 421 421 419 429 433 432 430 419 418 418 412 406 406 401 391 383 377 363 360 363 363 367 379 383 384 384 387 398 403 411 414 414 412 417 422 426 428 428 428 425 421 418 418 435 434 435 436 436 436 435 435 433 435 436 436 437 430 424 423 423 424 422 426 426 420 420 413 408 409 411 418 419 420 423 427 427 427 429 429 430 429 429 429 428 421 420 420 420 420 414 410 407 403 403 404 409 413 433 433 438 445 445 456 469 479 487 493 500 503 503 505 502 501 501 500 494 492 492 486 481 481 472 473 472 467 458 458 456 451 445 449 449 448 448 448 449 448 448 453 453 453 453 453 453 449 445 444 444 445 450 449 449 456 461 461 461 467 473 479 493 498 501 502 508 508 508 515 520 524 529 525 521 531 535 538 538 545 545 547 551 557 562 564
391 391 392 392 389 385 385 390 389 390 391 393 385 379 379 377 383 386 383 383 379 375 370 371 363 356 356 346 343 323 308 297 297 301 299 303 300 300 301 306 308 305 303 303 303 304 303 303 303 303 304 305 305 303 303 302 302 302 302 302 301 300 301 299 303 304 302 304 307 314 314 314 312 312 319 332 343 349 354 351 370 370 370 384 391 402 409 425 426 423 414 412 412 409 402 402 396 393 386 374 367 362 361 361 365 370 377 381 381 383 398 403 411 414 414 412 417 422 426 428 428 428 425 421 418 419 419 419 422 422 421 419 418 418 418 420 423 423 421 421 418 417 419 419 411 415 415 410 410 404 401 404 408 412 412 411 414 418 418 418 423 426 429 430 424 421 425 419 415 414 414 414 407 402 401 401 402 402 410 413 429 429 436 445 445 455 460 471 481 488 492 499 499 494 492 494 494 490 486 485 484 478 472 472 466 466 466 460 451 451 449 439 442 444 444 450 449 450 450 450 453 454 454 452 451 447 447 444 442 443 444 446 450 451 451 459 463 463 468 472 473 476 490 495 500 502 506 506 506 510 517 524 529 525 521 531 535 538 538 545 545 547 551 557 562 564
391 391 392 392 389 385 385 390 389 390 391 393 385 379 379 377 383 386 383 383 379 375 370 371 363 356 356 346 343 323 308 297 297 301 299 303 300 300 301 306 308 305 303 303 303 304 303 303 303 303 304 305 305 303 303 302 302 302 302 302 301 300 301 299 303 304 302 304 307 314 314 314 312 312 319 332 343 349 354 351 370 370 370 384 391 402 409 425 426 423 414 412 412 409 402 402 396 393 386 374 367 362 361 361 365 370 377 381 381 383 398 403 411 414 414 412 417 422 426 428 428 428 425 421 418 419 419 419 422 422 421 419 418 418 418 420 423 423 421 421 418 417 419 419 411 415 415 410 410 404 401 404 408 412 412 411 414 418 418 418 423 426 429 430 424 421 425 419 415 414 414 414 407 402 401 401 402 402 410 413 429 429 436 445 445 455 460 471 481 488 492 499 499 494 492 494 494 490 486 485 484 478 472 472 466 466 466 460 451 451 449 439 442 444 444 450 449 450 450 450 453 454 454 452 451 447 447 444 442 443 444 446 450 451 451 459 463 463 468 472 473 476 490 495 500 502 506 506 506 510 517 524 529 525 521 531 535 538 538 545 545 547 551 557 562 564
400 393 392 392 388 389 389 390 390 395 397 396 391 385 382 382 381 387 386 386 382 380 368 361 366 361 361 357 348 343 335 324 324 319 314 300 299 299 298 298 299 299 299 300 300 304 304 303 303 303 302 303 301 301 299 299 299 299 300 300 304 305 302 299 300 300 300 303 307 311 311 311 313 310 310 315 319 326 330 332 338 338 338 348 358 374 384 394 401 404 399 396 396 409 402 402 396 393 386 374 367 362 361 361 365 370 377 381 381 383 391 397 397 399 395 395 397 399 400 404 404 410 410 408 405 404 404 408 413 414 412 411 410 410 411 416 421 421 424 422 421 415 418 415 417 407 407 404 404 399 398 404 409 407 403 402 402 401 401 401 405 413 413 416 417 417 418 415 408 404 404 404 396 394 391 393 395 397 406 411 424 424 433 441 441 449 459 465 474 482 482 490 490 490 487 487 487 483 485 483 480 473 467 467 463 460 459 455 449 449 444 441 442 444 449 449 449 448 447 449 453 451 451 449 448 446 446 443 442 442 442 445 450 456 456 459 463 463 468 472 473 476 490 495 500 502 506 506 506 510 517 522 528 522 523 527 534 541 541 541 541 546 561 567 568 567
395 395 397 385 385 387 387 389 393 398 399 396 394 391 389 389 390 391 393 393 385 380 373 369 365 373 373 378 369 357 351 343 343 332 322 314 312 312 308 307 303 300 297 293 293 292 295 305 305 302 304 304 306 306 303 302 299 299 298 297 297 296 298 296 295 296 299 301 306 308 308 308 311 313 311 312 314 326 330 332 338 338 338 348 358 374 384 394 401 404 399 396 396 393 391 391 390 391 387 385 369 359 361 362 362 367 373 372 372 376 376 378 384 384 384 384 384 384 383 384 384 393 398 398 400 405 405 408 411 407 411 411 411 411 414 419 424 424 426 428 426 421 414 412 410 406 406 403 403 403 403 408 407 407 405 400 398 396 396 394 394 400 405 408 409 410 410 405 405 398 398 398 387 384 383 384 387 390 390 402 415 415 425 436 436 444 451 459 462 469 475 485 485 489 487 487 487 483 481 476 476 471 471 465 465 455 451 448 446 446 441 440 444 445 449 449 450 449 447 449 453 451 451 449 448 446 446 443 442 442 442 445 450 456 456 463 468 468 472 470 473 476 490 495 501 501 505 505 505 507 509 511 511 520 518 522 528 533 538 538 538 539 559 560 563 565
395 395 397 385 385 387 387 389 393 398 399 396 394 391 389 389 390 391 393 393 385 380 373 369 365 373 373 378 369 357 351 343 343 332 322 314 312 312 308 307 303 300 297 293 293 292 295 305 305 302 304 304 306 306 303 302 299 299 298 297 297 296 298 296 295 296 299 301 306 308 308 308 311 313 311 312 314 326 330 332 338 338 338 348 358 374 384 394 401 404 399 396 396 393 391 391 390 391 387 385 369 359 361 362 362 367 373 372 372 376 376 378 384 384 384 384 384 384 383 384 384 393 398 398 400 405 405 408 411 407 411 411 411 411 414 419 424 424 426 428 426 421 414 412 410 406 406 403 403 403 403 408 407 407 405 400 398 396 396 394 394 400 405 408 409 410 410 405 405 398 398 398 387 384 383 384 387 390 390 402 415 415 425 436 436 444 451 459 462 469 475 485 485 489 487 487 487 483 481 476 476 471 471 465 465 455 451 448 446 446 441 440 444 445 449 449 450 449 447 449 453 451 451 449 448 446 446 443 442 442 442 445 450 456 456 463 468 468 472 470 473 476 490 495 501 501 505 505 505 507 509 511 511 520 518 522 528 533 538 538 538 539 559 560 563 565
396 386 393 386 386 387 387 390 393 400 401 403 396 391 386 386 390 394 394 394 389 385 375 370 370 371 371 374 372 363 356 351 351 343 333 325 318 318 312 310 305 304 303 297 297 294 296 297 304 304 304 305 306 309 308 310 310 310 308 305 305 296 298 296 295 296 299 301 306 308 308 308 311 313 311 312 314 318 320 329 328 328 328 329 337 344 345 349 353 356 364 365 365 365 366 366 367 372 376 374 364 362 360 358 358 362 362 361 361 361 356 355 349 349 352 352 358 362 366 367 367 382 389 395 400 402 402 406 409 408 414 414 416 416 417 417 419 419 423 427 428 419 417 418 416 414 414 412 408 408 408 408 406 401 399 398 397 395 395 398 398 406 405 404 403 403 402 403 403 398 398 398 385 380 377 377 379 381 385 390 403 403 411 421 421 429 436 444 450 456 461 474 474 477 477 477 477 476 477 474 469 460 471 465 465 455 451 448 446 446 441 440 444 445 449 449 450 449 450 449 446 443 443 444 444 444 444 442 441 441 444 450 458 459 459 465 469 469 474 471 472 474 484 487 493 494 499 499 501 501 501 500 499 501 507 515 520 523 527 527 527 533 545 550 554 558
396 386 393 386 386 387 387 390 393 400 401 403 396 391 386 386 390 394 394 394 389 385 375 370 370 371 371 374 372 363 356 351 351 343 333 325 318 318 312 310 305 304 303 297 297 294 296 297 304 304 304 305 306 309 308 310 310 310 308 305 305 296 298 296 295 296 299 301 306 308 308 308 311 313 311 312 314 318 320 329 328 328 328 329 337 344 345 349 353 356 364 365 365 365 366 366 367 372 376 374 364 362 360 358 358 362 362 361 361 361 356 355 349 349 352 352 358 362 366 367 367 382 389 395 400 402 402 406 409 408 414 414 416 416 417 417 419 419 423 427 428 419 417 418 416 414 414 412 408 408 408 408 406 401 399 398 397 395 395 398 398 406 405 404 403 403 402 403 403 398 398 398 385 380 377 377 379 381 385 390 403 403 411 421 421 429 436 444 450 456 461 474 474 477 477 477 477 476 477 474 469 460 471 465 465 455 451 448 446 446 441 440 444 445 449 449 450 449 450 449 446 443 443 444 444 444 444 442 441 441 444 450 458 459 459 465 469 469 474 471 472 474 484 487 493 494 499 499 501 501 501 500 499 501 507 515 520 523 527 527 527 533 545 550 554 558
390 387 379 381 381 383 383 390 393 398 397 396 391 388 387 387 390 391 398 398 390 383 376 371 370 368 368 366 366 368 363 357 357 358 349 337 322 320 320 314 308 308 302 300 300 294 296 297 304 304 304 305 306 309 308 310 310 310 308 305 305 301 298 299 300 301 301 299 296 294 294 294 303 311 310 314 317 322 323 326 323 323 323 330 340 344 347 351 353 352 357 358 355 355 356 356 361 367 366 362 353 354 355 360 360 356 355 357 357 353 344 344 343 344 347 347 352 361 362 368 368 380 388 396 401 403 403 406 409 408 416 418 420 420 422 422 422 422 422 424 422 422 421 424 424 419 419 417 416 416 419 421 419 410 407 405 406 405 405 408 408 410 410 413 415 417 424 419 417 409 409 409 391 382 377 376 377 380 385 391 400 400 403 410 410 420 436 444 450 456 461 474 477 477 477 477 477 476 477 474 469 460 458 455 455 451 444 442 438 438 437 438 440 440 439 439 447 442 438 437 437 437 437 438 440 444 444 447 451 454 456 465 470 475 475 475 473 472 472 469 468 468 472 475 477 481 484 484 487 487 488 490 498 507 509 513 520 521 524 524 524 533 543 546 545 544
381 382 385 383 383 383 383 392 395 396 397 393 391 388 389 389 391 393 395 395 388 383 376 371 370 369 369 370 370 368 363 357 357 358 349 337 322 320 320 314 308 308 302 300 300 300 297 299 301 301 304 306 309 309 314 319 318 318 319 313 313 306 302 300 301 301 301 300 296 285 285 285 297 309 303 312 315 321 322 326 328 336 336 336 341 344 347 348 349 349 348 348 349 349 349 349 351 353 359 358 355 348 352 355 355 349 347 350 350 350 341 341 343 345 349 349 354 358 365 369 369 383 391 396 400 404 404 405 408 408 414 416 417 417 419 422 420 418 418 418 423 418 418 422 425 419 419 418 416 416 416 419 417 415 416 417 416 416 416 417 417 417 418 420 421 423 422 420 417 409 409 409 391 382 377 376 377 380 385 391 400 403 403 410 410 420 428 436 441 444 453 464 467 467 468 468 468 468 467 466 466 453 453 452 452 449 441 438 437 437 436 436 437 436 437 437 437 436 435 437 437 437 437 438 440 444 444 448 453 457 461 470 475 475 475 474 472 471 471 472 474 476 476 478 479 480 482 482 485 485 489 494 500 506 513 517 521 522 527 527 527 533 544 546 546 546
381 382 385 383 383 383 383 392 395 396 397 393 391 388 389 389 391 393 395 395 388 383 376 371 370 369 369 370 370 368 363 357 357 358 349 337 322 320 320 314 308 308 302 300 300 300 297 299 301 301 304 306 309 309 314 319 318 318 319 313 313 306 302 300 301 301 301 300 296 285 285 285 297 309 303 312 315 321 322 326 328 336 336 336 341 344 347 348 349 349 348 348 349 349 349 349 351 353 359 358 355 348 352 355 355 349 347 350 350 350 341 341 343 345 349 349 354 358 365 369 369 383 391 396 400 404 404 405 408 408 414 416 417 417 419 422 420 418 418 418 423 418 418 422 425 419 419 418 416 416 416 419 417 415 416 417 416 416 416 417 417 417 418 420 421 423 422 420 417 409 409 409 391 382 377 376 377 380 385 391 400 403 403 410 410 420 428 436 441 444 453 464 467 467 468 468 468 468 467 466 466 453 453 452 452 449 441 438 437 437 436 436 437 436 437 437 437 436 435 437 437 437 437 438 440 444 444 448 453 457 461 470 475 475 475 474 472 471 471 472 474 476 476 478 479 480 482 482 485 485 489 494 500 506 513 517 521 522 527 527 527 533 544 546 546 546
381 388 389 388 388 388 388 391 393 392 391 385 388 389 389 389 391 393 395 395 388 383 376 371 370 369 370 370 370 372 370 359 359 355 350 349 334 332 332 323 308 301 300 297 297 298 298 299 301 301 299 310 311 312 319 321 321 321 319 318 318 314 309 305 301 300 301 300 297 284 284 297 297 309 307 311 314 315 318 324 330 336 336 336 340 342 344 346 345 345 344 344 344 344 344 344 345 349 350 350 353 352 341 339 339 337 335 338 338 338 337 342 347 349 353 353 355 363 366 369 369 383 390 395 399 402 405 405 406 408 413 415 415 415 415 413 416 416 416 417 415 413 411 409 412 410 410 407 411 411 411 416 416 415 416 417 416 416 416 417 417 417 418 420 421 423 422 420 417 414 402 402 402 390 385 387 381 382 385 388 393 397 397 404 404 409 416 423 431 435 443 451 456 456 460 461 461 463 460 464 463 455 449 439 439 437 437 436 432 432 433 435 433 431 431 431 435 433 433 433 436 445 445 447 451 453 452 452 457 458 466 473 476 475 475 477 470 470 470 472 473 474 478 481 485 484 485 485 488 488 492 498 506 511 518 519 522 524 528 528 528 533 542 548 552 553
381 388 389 388 388 388 388 391 393 392 391 385 388 389 389 391 391 394 393 393 383 382 378 376 376 376 372 372 372 374 372 370 370 355 346 342 341 334 334 329 311 304 302 298 298 297 297 295 299 299 297 300 307 307 313 312 315 315 316 316 316 317 310 309 304 302 302 301 296 293 293 299 299 302 309 310 305 307 311 321 327 334 334 334 341 341 340 342 345 345 341 341 341 341 342 342 343 347 349 348 347 341 335 329 329 327 329 332 332 334 340 345 351 354 357 362 362 364 368 373 373 386 390 394 398 401 403 403 405 407 410 410 408 408 405 403 402 416 416 417 415 413 411 409 412 410 410 407 411 411 411 416 416 418 421 421 419 418 418 422 422 431 435 437 437 436 428 422 422 416 399 399 399 391 382 381 381 388 391 392 393 397 397 403 403 405 409 414 419 422 430 440 445 445 447 447 447 448 454 454 443 428 422 425 425 426 430 431 431 431 433 432 432 436 434 435 435 432 430 431 434 446 446 454 458 459 465 465 463 466 468 477 479 478 478 475 473 472 472 473 473 475 479 482 483 486 490 490 494 494 495 501 504 511 519 522 525 527 529 529 529 534 545 552 555 558
381 388 389 388 388 388 388 391 393 392 391 385 388 389 389 391 391 394 393 393 383 382 378 376 376 376 372 372 372 374 372 370 370 355 346 342 341 334 334 329 311 304 302 298 298 297 297 295 299 299 297 300 307 307 313 312 315 315 316 316 316 317 310 309 304 302 302 301 296 293 293 299 299 302 309 310 305 307 311 321 327 334 334 334 341 341 340 342 345 345 341 341 341 341 342 342 343 347 349 348 347 341 335 329 329 327 329 332 332 334 340 345 351 354 357 362 362 364 368 373 373 386 390 394 398 401 403 403 405 407 410 410 408 408 405 403 402 416 416 417 415 413 411 409 412 410 410 407 411 411 411 416 416 418 421 421 419 418 418 422 422 431 435 437 437 436 428 422 422 416 399 399 399 391 382 381 381 388 391 392 393 397 397 403 403 405 409 414 419 422 430 440 445 445 447 447 447 448 454 454 443 428 422 425 425 426 430 431 431 431 433 432 432 436 434 435 435 432 430 431 434 446 446 454 458 459 465 465 463 466 468 477 479 478 478 475 473 472 472 473 473 475 479 482 483 486 490 490 494 494 495 501 504 511 519 522 525 527 529 529 529 534 545 552 555 558
387 389 394 393 390 390 390 390 389 389 384 383 386 389 392 392 392 390 389 389 387 380 380 379 383 381 379 379 377 378 373 364 364 356 346 343 337 331 331 326 315 313 309 301 301 292 294 297 297 297 298 296 302 304 309 312 312 312 311 316 315 315 316 310 305 300 296 296 294 293 293 297 297 298 301 303 305 308 312 320 322 327 327 327 332 335 333 332 334 334 334 333 338 338 339 339 337 340 340 342 343 333 325 322 322 322 327 336 336 340 343 347 353 357 361 364 364 367 372 376 376 386 390 394 398 401 403 403 405 407 410 410 408 408 405 403 402 405 405 408 404 404 402 401 403 400 400 402 405 405 407 410 416 416 421 425 425 425 425 425 437 437 437 437 433 434 434 426 424 417 402 402 402 389 383 379 377 382 387 388 393 395 395 400 400 402 404 408 411 418 417 426 429 429 432 432 432 432 431 431 427 421 420 427 427 426 425 425 426 426 429 437 439 441 439 435 435 434 433 434 436 443 443 454 455 459 466 466 469 475 479 480 479 477 477 473 473 472 472 472 473 478 480 480 480 483 488 488 494 494 498 502 510 515 520 525 530 529 531 535 535 535 545 552 555 558
388 391 395 393 392 392 392 388 387 382 383 383 386 389 394 394 394 394 392 392 389 387 385 382 384 383 383 383 381 374 377 366 366 362 356 352 346 338 338 328 316 313 308 301 301 290 291 295 297 295 295 297 298 298 303 308 309 309 311 319 319 319 312 307 306 304 303 301 297 301 301 301 301 304 305 306 305 307 308 311 311 312 312 312 313 314 316 319 321 322 324 328 329 329 330 330 330 330 333 332 333 324 322 322 322 322 327 336 336 340 343 347 353 357 361 364 364 367 372 376 376 386 391 396 399 398 399 399 400 401 398 393 388 388 383 378 384 388 388 391 398 392 391 393 396 400 400 397 402 403 403 403 408 414 417 419 420 423 423 426 430 430 431 432 425 427 425 426 422 414 401 401 401 393 385 381 378 379 383 384 384 389 389 394 394 396 398 403 406 408 409 417 419 419 422 422 422 421 422 423 421 424 430 429 428 428 428 427 426 426 428 437 439 439 439 438 438 436 434 432 430 439 439 447 456 460 466 466 469 476 479 479 477 474 474 471 471 473 473 473 475 476 478 479 479 483 488 488 494 498 498 502 510 515 520 525 530 529 531 535 535 535 547 552 554 557
388 391 395 393 392 392 392 388 387 382 383 383 386 389 394 394 394 394 392 392 389 387 385 382 384 383 383 383 381 374 377 366 366 362 356 352 346 338 338 328 316 313 308 301 301 290 291 295 297 295 295 297 298 298 303 308 309 309 311 319 319 319 312 307 306 304 303 301 297 301 301 301 301 304 305 306 305 307 308 311 311 312 312 312 313 314 316 319 321 322 324 328 329 329 330 330 330 330 333 332 333 324 322 322 322 322 327 336 336 340 343 347 353 357 361 364 364 367 372 376 376 386 391 396 399 398 399 399 400 401 398 393 388 388 383 378 384 388 388 391 398 392 391 393 396 400 400 397 402 403 403 403 408 414 417 419 420 423 423 426 430 430 431 432 425 427 425 426 422 414 401 401 401 393 385 381 378 379 383 384 384 389 389 394 394 396 398 403 406 408 409 417 419 419 422 422 422 421 422 423 421 424 430 429 428 428 428 427 426 426 428 437 439 439 439 438 438 436 434 432 430 439 439 447 456 460 466 466 469 476 479 479 477 474 474 471 471 473 473 473 475 476 478 479 479 483 488 488 494 498 498 502 510 515 520 525 530 529 531 535 535 535 547 552 554 557
390 391 393 390 385 385 385 384 384 382 384 387 392 396 396 396 396 393 397 397 397 394 390 389 387 384 389 389 388 380 376 377 377 368 362 361 359 349 332 332 317 310 304 297 297 296 296 295 299 304 304 303 306 308 304 306 310 310 313 313 314 314 312 310 308 308 307 304 300 306 306 306 306 308 308 306 305 306 307 307 307 307 307 307 307 306 305 305 321 322 324 328 329 330 330 330 330 330 333 332 333 324 322 322 324 324 327 338 338 346 345 347 351 356 361 366 366 370 374 378 378 388 391 392 392 392 390 390 388 385 380 376 374 374 370 366 367 379 381 381 382 385 386 387 390 392 392 388 393 391 391 398 402 406 406 408 410 412 412 416 418 418 417 414 417 416 415 415 412 406 396 396 396 389 386 384 384 382 380 379 377 383 383 387 387 390 394 398 402 403 405 411 411 410 410 411 411 415 415 418 421 428 429 427 428 428 431 436 430 430 433 440 441 438 441 440 440 439 436 431 429 438 438 447 457 458 463 463 467 476 479 479 477 474 474 471 471 473 473 473 475 476 478 479 479 480 487 487 496 502 502 506 518 526 528 531 531 533 535 540 540 540 554 558 559 561
380 385 386 387 391 391 391 385 384 389 391 394 398 402 404 408 408 409 409 409 410 410 410 403 398 394 393 393 394 398 401 394 394 389 377 368 361 355 342 342 325 316 311 306 306 305 304 305 305 307 307 311 315 317 323 324 327 327 327 320 319 319 316 316 317 318 315 314 317 317 317 316 306 308 308 306 305 306 307 307 307 307 307 307 307 306 305 305 306 309 313 315 316 318 318 318 319 320 322 322 322 320 318 319 324 324 330 337 337 342 346 351 353 359 362 368 368 374 377 380 380 385 387 387 386 383 380 380 376 375 375 373 371 371 370 374 373 373 374 374 374 376 376 375 377 382 382 386 388 382 382 394 395 398 400 403 403 402 402 404 405 405 410 406 407 404 404 403 400 397 394 394 394 391 385 384 382 380 378 375 372 374 378 378 378 380 383 387 389 394 399 406 406 408 408 411 411 413 412 415 423 426 429 427 430 430 433 434 437 437 434 445 446 438 441 440 440 439 436 431 429 438 438 447 457 458 463 463 467 472 474 469 466 465 465 467 466 470 472 472 476 477 479 479 478 483 491 491 500 508 508 513 529 531 531 534 535 537 542 553 553 553 563 565 565 565
380 385 386 387 391 391 391 385 384 389 391 394 398 402 404 408 408 409 409 409 410 410 410 403 398 394 393 393 394 398 401 394 394 389 377 368 361 355 342 342 325 316 311 306 306 305 304 305 305 307 307 311 315 317 323 324 327 327 327 320 319 319 316 316 317 318 315 314 317 317 317 316 306 308 308 306 305 306 307 307 307 307 307 307 307 306 305 305 306 309 313 315 316 318 318 318 319 320 322 322 322 320 318 319 324 324 330 337 337 342 346 351 353 359 362 368 368 374 377 380 380 385 387 387 386 383 380 380 376 375 375 373 371 371 370 374 373 373 374 374 374 376 376 375 377 382 382 386 388 382 382 394 395 398 400 403 403 402 402 404 405 405 410 406 407 404 404 403 400 397 394 394 394 391 385 384 382 380 378 375 372 374 378 378 378 380 383 387 389 394 399 406 406 408 408 411 411 413 412 415 423 426 429 427 430 430 433 434 437 437 434 445 446 438 441 440 440 439 436 431 429 438 438 447 457 458 463 463 467 472 474 469 466 465 465 467 466 470 472 472 476 477 479 479 478 483 491 491 500 508 508 513 529 531 531 534 535 537 542 553 553 553 563 565 565 565
379 382 385 389 384 384 384 385 382 389 392 395 399 403 408 410 410 413 414 414 414 415 413 416 413 417 417 411 411 407 412 407 407 402 392 381 370 365 352 352 336 322 318 308 308 305 302 302 303 309 309 310 315 320 323 324 327 327 327 320 319 319 316 316 317 318 315 314 317 317 317 316 313 313 310 306 304 304 303 304 306 308 308 310 310 309 308 310 312 314 312 310 308 307 307 307 308 308 309 309 314 316 319 323 326 326 329 334 334 346 358 364 370 377 384 385 385 390 397 398 398 393 392 391 389 385 386 384 384 383 383 382 380 380 380 377 371 365 360 360 358 360 362 364 362 358 358 357 359 359 359 368 368 367 365 362 364 367 367 372 378 378 379 379 372 371 369 369 376 377 375 375 375 371 369 368 366 364 363 360 356 354 355 355 355 357 360 363 372 380 384 401 411 412 412 411 411 413 412 415 423 426 429 427 430 430 433 434 437 437 434 445 446 447 447 444 444 440 434 430 429 442 442 443 450 452 455 457 457 459 461 463 464 465 465 464 465 466 469 469 471 473 479 482 483 488 494 494 505 510 510 516 537 540 543 543 548 553 559 565 565 565 567 568 568 567
376 382 385 386 385 385 385 379 384 388 394 402 404 409 414 415 418 418 424 424 427 425 426 424 422 420 420 421 421 417 420 418 418 414 403 394 388 380 372 352 336 322 318 308 308 305 302 302 303 309 309 310 315 320 329 334 336 336 335 330 323 323 322 323 326 321 324 319 321 316 316 318 318 318 316 313 311 310 310 308 308 309 309 312 312 311 309 310 313 316 311 307 305 305 305 305 308 310 310 311 314 317 319 323 326 326 335 342 342 345 361 369 376 383 390 400 403 403 405 404 404 398 393 390 388 387 386 385 385 384 382 381 379 379 376 375 370 362 360 360 358 358 359 361 361 359 359 359 359 361 361 361 362 361 360 360 360 363 363 366 371 371 370 369 368 367 366 368 367 368 366 366 366 366 367 367 364 361 359 360 356 354 355 355 355 357 360 363 372 380 384 401 411 412 412 418 418 419 422 425 428 434 432 426 424 424 423 430 431 431 433 439 442 444 447 444 444 444 445 449 449 448 448 453 452 452 455 458 458 463 468 477 477 479 479 477 478 484 485 485 483 490 494 496 501 507 517 517 525 523 523 529 541 552 553 557 560 562 562 561 561 561 561 557 552 549
376 382 385 386 385 385 385 379 384 388 394 402 404 409 414 415 418 418 424 424 427 425 426 424 422 420 420 421 421 417 420 418 418 414 403 394 388 380 372 352 336 322 318 308 308 305 302 302 303 309 309 310 315 320 329 334 336 336 335 330 323 323 322 323 326 321 324 319 321 316 316 318 318 318 316 313 311 310 310 308 308 309 309 312 312 311 309 310 313 316 311 307 305 305 305 305 308 310 310 311 314 317 319 323 326 326 335 342 342 345 361 369 376 383 390 400 403 403 405 404 404 398 393 390 388 387 386 385 385 384 382 381 379 379 376 375 370 362 360 360 358 358 359 361 361 359 359 359 359 361 361 361 362 361 360 360 360 363 363 366 371 371 370 369 368 367 366 368 367 368 366 366 366 366 367 367 364 361 359 360 356 354 355 355 355 357 360 363 372 380 384 401 411 412 412 418 418 419 422 425 428 434 432 426 424 424 423 430 431 431 433 439 442 444 447 444 444 444 445 449 449 448 448 453 452 452 455 458 458 463 468 477 477 479 479 477 478 484 485 485 483 490 494 496 501 507 517 517 525 523 523 529 541 552 553 557 560 562 562 561 561 561 561 557 552 549
377 383 377 370 376 381 381 381 384 389 400 403 409 415 420 420 423 423 433 433 436 439 441 441 422 420 420 421 421 417 420 418 418 414 403 394 388 380 372 372 344 323 314 307 307 304 299 297 305 315 315 318 322 326 331 331 335 335 332 332 331 327 327 326 325 323 325 331 328 324 324 322 323 323 322 319 316 315 315 313 312 311 311 312 312 311 313 315 314 315 311 308 306 306 306 306 307 309 309 313 316 315 319 324 334 334 342 341 341 349 366 373 381 386 395 402 408 408 410 411 411 403 398 395 393 393 394 393 393 392 385 380 376 376 373 369 366 362 359 359 358 361 360 360 362 362 362 361 360 360 360 360 359 358 359 359 360 363 363 366 366 366 366 369 368 367 366 368 367 368 366 366 366 366 367 367 364 361 359 357 354 352 350 350 350 352 354 357 366 373 386 404 412 416 416 424 424 426 430 434 437 441 436 434 432 432 426 427 428 428 432 439 442 443 445 445 450 450 452 456 458 459 459 463 463 465 467 469 469 472 474 481 481 485 485 485 487 486 493 493 494 503 511 516 523 526 530 530 534 532 532 533 540 544 549 552 556 558 555 556 556 554 554 552 547 542
376 379 377 368 370 374 374 374 382 389 400 403 409 415 420 420 423 423 433 433 436 439 441 441 441 441 438 435 435 426 422 416 416 411 406 402 393 387 373 373 342 321 314 312 312 304 303 303 313 317 317 317 319 323 327 330 334 334 329 333 331 334 334 332 331 332 330 332 331 332 332 331 332 332 331 334 327 326 322 320 320 321 321 321 321 321 322 322 321 321 317 315 314 312 312 312 311 310 310 311 313 315 322 330 336 340 340 349 349 359 372 378 384 392 401 413 418 418 420 420 420 416 410 411 407 400 398 399 399 396 387 379 372 372 375 369 365 363 360 360 358 364 367 367 368 369 369 361 360 360 360 360 359 358 359 359 360 363 363 366 366 366 366 365 364 363 363 366 364 365 364 364 364 364 365 361 362 360 359 358 356 355 353 353 353 351 351 352 352 368 376 408 412 423 423 427 427 432 432 439 442 446 438 441 441 437 437 433 433 433 433 439 442 444 445 451 458 458 462 464 465 465 465 468 475 475 474 477 477 481 485 490 497 500 500 500 500 499 494 494 499 502 516 520 525 528 532 532 531 531 531 533 537 536 538 542 546 549 549 547 547 544 544 540 538 530
376 379 377 368 370 374 374 374 382 389 400 403 409 415 420 420 423 423 433 433 436 439 441 441 441 441 438 435 435 426 422 416 416 411 406 402 393 387 373 373 342 321 314 312 312 304 303 303 313 317 317 317 319 323 327 330 334 334 329 333 331 334 334 332 331 332 330 332 331 332 332 331 332 332 331 334 327 326 322 320 320 321 321 321 321 321 322 322 321 321 317 315 314 312 312 312 311 310 310 311 313 315 322 330 336 340 340 349 349 359 372 378 384 392 401 413 418 418 420 420 420 416 410 411 407 400 398 399 399 396 387 379 372 372 375 369 365 363 360 360 358 364 367 367 368 369 369 361 360 360 360 360 359 358 359 359 360 363 363 366 366 366 366 365 364 363 363 366 364 365 364 364 364 364 365 361 362 360 359 358 356 355 353 353 353 351 351 352 352 368 376 408 412 423 423 427 427 432 432 439 442 446 438 441 441 437 437 433 433 433 433 439 442 444 445 451 458 458 462 464 465 465 465 468 475 475 474 477 477 481 485 490 497 500 500 500 500 499 494 494 499 502 516 520 525 528 532 532 531 531 531 533 537 536 538 542 546 549 549 547 547 544 544 540 538 530
376 379 377 368 370 374 374 374 382 387 391 406 409 412 416 419 418 418 432 432 442 440 441 446 449 449 447 444 444 440 430 423 423 414 408 404 394 386 379 344 344 325 319 315 315 310 307 308 314 319 320 320 325 329 333 337 337 337 334 336 333 335 335 336 339 338 337 335 333 333 333 334 336 336 335 331 331 333 335 332 333 334 334 335 335 335 335 331 330 326 326 322 321 322 322 322 322 318 315 313 315 319 323 330 339 347 347 355 355 364 377 383 386 392 400 409 419 419 422 426 426 421 417 412 408 404 401 398 398 394 387 379 372 372 375 369 365 363 360 360 358 364 367 367 368 369 369 367 361 363 369 369 367 366 362 358 362 361 361 363 366 366 366 365 364 364 365 365 367 369 365 365 362 362 358 355 354 353 355 356 360 364 360 360 360 358 353 355 357 365 371 399 413 425 426 426 426 435 438 442 442 447 449 449 450 442 442 445 443 443 438 439 441 445 451 454 465 465 467 470 475 473 473 476 478 480 483 485 485 488 492 499 501 504 504 502 502 500 502 502 505 505 510 515 519 523 529 529 530 532 534 534 535 537 538 540 542 541 544 542 542 539 539 537 534 530
370 371 369 367 364 365 365 365 373 387 396 408 409 411 416 416 419 419 421 421 434 439 440 441 442 442 439 446 446 442 437 433 433 417 409 400 392 383 370 332 332 322 329 325 325 314 312 314 320 325 325 325 325 326 332 335 330 330 334 330 335 336 336 336 338 337 337 338 339 330 330 332 333 333 333 331 331 333 331 334 337 335 335 339 342 342 347 345 346 340 338 338 340 335 335 335 335 330 328 325 323 325 328 336 346 352 352 358 358 368 377 379 384 388 400 409 419 419 422 426 426 421 417 412 408 404 401 398 398 394 382 374 369 369 368 364 362 361 357 356 356 365 374 373 372 366 366 360 366 366 367 367 369 363 367 363 359 356 356 359 365 367 367 368 370 372 374 374 372 372 371 371 369 369 364 357 352 349 347 358 367 364 362 362 362 357 353 346 354 362 369 405 413 421 429 429 429 428 432 437 441 448 454 451 452 456 456 447 448 448 446 439 439 444 452 452 460 460 463 476 479 491 491 490 491 490 492 492 492 492 494 495 501 502 502 507 507 506 504 504 504 506 511 511 517 523 527 527 530 535 538 538 538 539 541 540 542 541 544 542 542 539 539 537 534 530
370 371 369 367 364 365 365 365 373 387 396 408 409 411 416 416 419 419 421 421 434 439 440 441 442 442 439 446 446 442 437 433 433 417 409 400 392 383 370 332 332 322 329 325 325 314 312 314 320 325 325 325 325 326 332 335 330 330 334 330 335 336 336 336 338 337 337 338 339 330 330 332 333 333 333 331 331 333 331 334 337 335 335 339 342 342 347 345 346 340 338 338 340 335 335 335 335 330 328 325 323 325 328 336 346 352 352 358 358 368 377 379 384 388 400 409 419 419 422 426 426 421 417 412 408 404 401 398 398 394 382 374 369 369 368 364 362 361 357 356 356 365 374 373 372 366 366 360 366 366 367 367 369 363 367 363 359 356 356 359 365 367 367 368 370 372 374 374 372 372 371 371 369 369 364 357 352 349 347 358 367 364 362 362 362 357 353 346 354 362 369 405 413 421 429 429 429 428 432 437 441 448 454 451 452 456 456 447 448 448 446 439 439 444 452 452 460 460 463 476 479 491 491 490 491 490 492 492 492 492 494 495 501 502 502 507 507 506 504 504 504 506 511 511 517 523 527 527 530 535 538 538 538 539 541 540 542 541 544 542 542 539 539 537 534 530
354 362 359 365 359 362 362 362 368 378 384 392 407 411 410 411 411 411 413 413 422 426 429 431 434 433 432 439 439 439 438 432 432 425 416 401 386 375 364 333 333 322 324 324 324 323 319 324 331 323 322 322 327 328 329 333 332 332 332 333 334 335 335 333 332 333 334 336 334 337 337 335 335 335 335 333 335 332 332 335 337 341 341 342 349 349 349 353 351 354 353 352 355 356 352 352 352 348 328 325 323 325 328 336 346 352 352 358 358 368 377 379 384 388 395 408 417 417 420 422 422 416 411 409 405 399 394 391 386 386 374 369 371 371 368 365 361 357 355 354 354 366 375 381 377 367 367 363 367 370 373 373 369 373 369 368 365 363 363 362 371 376 376 378 379 380 378 375 374 373 374 374 368 368 364 354 347 345 347 353 357 355 356 353 353 353 341 340 346 355 369 400 410 411 421 421 421 427 432 437 442 449 446 448 453 455 455 453 448 448 442 436 434 436 439 449 457 457 465 475 479 496 496 492 494 493 496 497 498 498 494 494 499 505 505 508 507 505 502 504 504 506 511 511 517 523 527 527 530 535 538 538 538 539 541 544 545 547 546 543 543 541 541 538 536 531
354 362 359 365 359 362 362 362 368 378 384 392 407 411 410 411 411 411 413 413 422 426 429 431 434 433 432 439 439 439 438 432 432 425 416 401 386 375 364 333 333 322 324 324 324 323 319 324 331 323 322 322 327 328 329 333 332 332 332 333 334 335 335 333 332 333 334 336 334 337 337 335 335 335 335 333 335 332 332 335 337 341 341 342 349 349 349 353 351 354 353 352 355 356 352 352 352 348 328 325 323 325 328 336 346 352 352 358 358 368 377 379 384 388 395 408 417 417 420 422 422 416 411 409 405 399 394 391 386 386 374 369 371 371 368 365 361 357 355 354 354 366 375 381 377 367 367 363 367 370 373 373 369 373 369 368 365 363 363 362 371 376 376 378 379 380 378 375 374 373 374 374 368 368 364 354 347 345 347 353 357 355 356 353 353 353 341 340 346 355 369 400 410 411 421 421 421 427 432 437 442 449 446 448 453 455 455 453 448 448 442 436 434 436 439 449 457 457 465 475 479 496 496 492 494 493 496 497 498 498 494 494 499 505 505 508 507 505 502 504 504 506 511 511 517 523 527 527 530 535 538 538 538 539 541 544 545 547 546 543 543 541 541 538 536 531
347 353 356 352 357 361 361 361 361 369 372 383 391 395 398 399 398 397 397 397 404 412 414 422 428 434 436 435 433 433 433 432 432 422 410 398 392 376 359 331 331 324 318 325 325 320 322 321 326 325 326 326 327 331 333 336 342 342 340 336 333 332 332 331 332 333 336 339 338 341 341 339 340 339 339 339 338 338 338 342 346 341 341 342 349 349 349 353 351 354 353 352 355 356 352 352 352 348 343 341 341 341 343 346 350 357 357 369 369 372 373 375 377 381 388 400 407 412 412 412 412 407 402 399 395 389 384 379 374 374 370 371 369 369 368 368 366 361 358 356 356 364 369 378 374 371 371 369 372 373 371 371 369 368 372 369 371 373 373 371 379 383 383 385 384 384 381 379 379 377 374 374 367 362 362 350 344 345 345 353 346 352 351 355 355 355 348 340 341 355 366 387 401 416 417 417 417 425 431 436 441 450 451 452 455 454 454 454 451 451 446 438 435 437 436 436 445 445 456 469 475 483 483 492 494 493 496 497 498 498 494 494 499 505 505 508 507 505 502 502 502 507 513 515 518 523 527 527 528 534 540 540 541 542 543 544 544 546 546 545 545 542 542 538 534 531
352 350 350 351 351 352 352 353 353 363 367 365 376 370 372 374 379 379 379 379 384 385 390 391 397 404 409 411 414 414 414 413 413 409 401 389 379 371 353 326 326 314 318 318 318 331 331 335 335 327 329 329 332 334 336 338 341 341 344 340 341 345 345 345 348 333 336 339 338 341 341 339 340 339 339 339 338 338 338 342 346 348 348 359 363 363 367 369 363 364 365 365 366 364 362 362 362 362 361 358 357 357 358 357 357 361 361 367 367 374 383 382 385 387 393 394 395 396 396 401 401 398 396 395 395 389 388 383 372 372 375 373 371 371 367 367 365 363 361 360 360 364 367 370 373 375 375 373 372 373 372 372 370 370 371 375 379 383 383 382 387 390 390 390 388 384 383 383 380 383 373 373 369 364 364 358 347 341 340 345 348 351 353 347 347 347 348 347 349 355 363 381 387 405 415 415 415 421 427 431 435 442 446 451 451 450 454 454 451 451 446 438 435 437 436 436 445 456 456 469 475 483 483 493 491 494 499 498 498 498 494 494 496 501 501 504 504 503 506 508 508 510 513 515 517 521 524 524 526 531 537 537 541 541 543 545 547 547 547 546 546 543 543 540 538 536
352 350 350 351 351 352 352 353 353 363 367 365 376 370 372 374 379 379 379 379 384 385 390 391 397 404 409 411 414 414 414 413 413 409 401 389 379 371 353 326 326 314 318 318 318 331 331 335 335 327 329 329 332 334 336 338 341 341 344 340 341 345 345 345 348 333 336 339 338 341 341 339 340 339 339 339 338 338 338 342 346 348 348 359 363 363 367 369 363 364 365 365 366 364 362 362 362 362 361 358 357 357 358 357 357 361 361 367 367 374 383 382 385 387 393 394 395 396 396 401 401 398 396 395 395 389 388 383 372 372 375 373 371 371 367 367 365 363 361 360 360 364 367 370 373 375 375 373 372 373 372 372 370 370 371 375 379 383 383 382 387 390 390 390 388 384 383 383 380 383 373 373 369 364 364 358 347 341 340 345 348 351 353 347 347 347 348 347 349 355 363 381 387 405 415 415 415 421 427 431 435 442 446 451 451 450 454 454 451 451 446 438 435 437 436 436 445 456 456 469 475 483 483 493 491 494 499 498 498 498 494 494 496 501 501 504 504 503 506 508 508 510 513 515 517 521 524 524 526 531 537 537 541 541 543 545 547 547 547 546 546 543 543 540 538 536
